-4.50912 -13.9883 59.5044
-3.48813 -13.9982 59.497
-2.73389 -13.9852 59.4896
-1.99942 -13.9968 59.499
-1.23921 -13.9966 59.5054
-0.489404 -14.0191 59.4918
0.491381 -14.0013 59.5035
1.25127 -14.0034 59.5116
1.97779 -13.9641 59.5454
2.75638 -14.0009 59.5251
3.48658 -13.994 59.4967
4.50812 -14.0056 59.4928
5.00887 -14.0364 59.6319
-5.00611 -13.3291 59.759
-4.53651 -13.1434 59.4596
-3.54051 -13.1473 59.4643
-2.7873 -13.2156 59.5483
-2.02852 -13.1014 59.4124
-1.25709 -13.2134 59.495
-0.482643 -13.1033 59.5768
0.482124 -13.2187 59.5006
1.23583 -13.2136 59.4827
2.0649 -13.1331 59.5285
2.7642 -13.2283 59.5114
3.49279 -13.0973 59.419
4.4632 -13.1446 59.5354
5.01078 -13.1594 59.869
-5.00688 -12.5316 59.4797
-4.51604 -12.3957 59.5462
-3.47152 -12.461 59.5385
-2.7669 -12.5234 59.4774
-2.00364 -12.4146 59.5851
-1.23797 -12.499 59.4784
-0.490888 -12.3976 59.4147
0.494393 -12.4941 59.5
1.26482 -12.4784 59.5039
1.92656 -12.492 59.4975
2.74105 -12.5069 59.4908
3.48821 -12.4023 59.5786
4.53609 -12.4539 59.4714
5.00649 -12.5188 59.5537
-5.00749 -11.4795 59.4788
-4.46434 -11.5359 59.4627
-3.44331 -11.5368 59.5557
-2.73287 -11.6153 59.5745
-1.99816 -11.6008 59.4217
-1.25934 -11.5119 59.5009
-0.527341 -11.5473 59.4859
0.496696 -11.493 59.5133
1.23548 -11.4988 59.5093
2.03874 -11.5364 59.4578
2.7432 -11.5828 59.5768
3.49153 -11.4959 59.4815
4.46972 -11.5467 59.4507
5.00818 -11.5157 59.5078
-5.00758 -10.7523 59.4196
-4.51108 -10.8827 59.6363
-3.54987 -10.8521 59.4647
-2.77446 -10.8787 59.4036
-2.02038 -10.8864 59.6079
-1.23938 -10.7835 59.5155
-0.424342 -10.8772 59.546
0.487171 -10.7545 59.5096
1.26526 -10.7774 59.5006
1.95887 -10.8442 59.5362
2.74999 -10.9018 59.4291
3.49145 -10.7761 59.503
4.5503 -10.8571 59.5591
5.00686 -10.6688 59.7474
-5.00693 -10.1632 59.4589
-4.46059 -10.097 59.524
-3.59732 -10.1414 59.513
-2.89009 -9.95736 59.5031
-1.99004 -10.0743 59.5335
-1.22439 -10.0997 59.4991
-0.507243 -10.0976 59.503
0.482138 -10.1067 59.5411
1.25014 -10.0717 59.5226
1.99532 -10.0763 59.5261
2.75086 -10.0504 59.5021
3.53286 -10.0901 59.5449
4.54554 -10.1408 59.5361
5.00871 -10.2369 59.5655
-4.27416 -9.03862 59.5671
-3.49341 -9.3391 59.5702
-1.90544 -9.02448 59.9991
-0.824089 -9.21325 59.9854
1.38895 -9.23246 59.9937
2.49161 -9.10978 59.9934
3.54679 -9.33141 59.5341
4.43971 -8.94983 59.5624
-5.79368 -8.1456 59.505
-5.29219 -8.48744 59.5572
-4.7834 -8.7873 59.4978
-3.8978 -8.17613 59.9924
-2.82106 -8.35482 59.9918
-1.80162 -8.53279 59.9866
-0.732167 -8.35599 59.9933
0.2543 -8.58337 59.9903
1.33032 -8.79216 59.996
2.24194 -8.17908 59.9864
3.42879 -8.4508 59.9919
4.48731 -8.08306 59.9816
5.19337 -8.53917 59.5755
5.69721 -8.2238 59.5505
-6.70093 -7.41955 59.5611
-6.27605 -7.76217 59.586
-4.92418 -7.81882 59.988
-4.58596 -7.2737 59.9839
-2.53468 -7.49958 59.989
-1.61073 -7.65109 59.9871
-0.687418 -7.61714 59.9888
0.237923 -7.72987 59.9918
1.12495 -7.50345 59.991
2.04486 -7.45728 59.9882
3.04978 -7.5261 59.9921
4.19063 -7.6009 59.9956
5.16879 -7.2091 59.9852
6.02061 -7.81809 59.6956
6.69414 -7.39879 59.609
-7.34113 -6.79331 59.5672
-6.89148 -6.82086 59.7521
-5.82992 -7.18475 59.9946
-4.33209 -6.85275 59.9914
-3.24619 -6.79425 59.9951
-3.07014 -6.48369 59.9985
-2.24403 -6.6075 59.9992
-1.47144 -7.01814 59.9976
-0.607073 -6.7588 59.9953
0.219232 -6.97871 59.9828
0.988698 -6.61782 59.9874
1.86597 -6.82684 59.9893
2.7463 -6.82347 59.9983
3.64695 -6.6035 59.9923
6.30357 -6.89312 59.9953
7.39194 -6.72491 59.5615
-8.1074 -5.85294 59.5014
-7.59446 -6.0192 59.7695
-6.05947 -5.88107 59.9976
-4.63907 -5.69788 59.9858
-3.78246 -5.98763 59.9949
-2.80515 -5.87822 59.9963
-1.94333 -5.71957 59.9825
-1.25689 -6.00381 59.9897
-0.531088 -5.92442 59.9947
0.178834 -6.03042 59.9871
1.11905 -5.92548 59.9971
2.03063 -6.02851 59.9862
2.53167 -6.2535 59.9929
3.42148 -6.18685 59.9889
4.18563 -5.83553 59.9857
5.21937 -5.72528 59.9981
5.75144 -6.26996 59.9998
7.19723 -6.2037 59.9939
7.83715 -6.21633 59.4975
8.2073 -5.71131 59.5466
-8.51454 -5.16588 59.5875
-6.6662 -5.10608 59.991
-5.29708 -5.11524 59.9974
-4.17905 -5.14663 59.998
-3.65427 -5.08451 59.9897
-2.4935 -5.26553 59.9976
-2.06166 -5.10643 59.9917
-1.07222 -5.12454 59.9885
-0.46453 -5.26509 59.9966
0.359457 -5.1049 59.9909
1.41452 -5.18633 59.9988
2.15851 -5.32352 59.9922
3.66513 -5.09605 59.9968
4.84048 -5.28988 59.9885
5.84868 -5.0464 59.987
6.80732 -5.20251 59.9905
7.82183 -5.26608 59.9974
8.47176 -5.25303 59.5372
-9.02205 -4.32262 59.5362
-6.99008 -4.12295 59.9947
-5.98813 -4.59917 59.9974
-5.40353 -4.12377 59.9884
-4.52788 -4.39574 59.9905
-3.47666 -4.28042 59.9929
-2.84702 -4.4951 59.9831
-1.83962 -4.53808 59.9938
-1.19936 -4.35212 59.9879
-0.391256 -4.36724 59.9992
0.38482 -4.21899 59.9954
1.24248 -4.50367 59.9919
1.99336 -4.40444 59.9959
2.88969 -4.58657 59.9964
3.76965 -4.1106 59.9921
4.35574 -4.38525 59.9907
5.36001 -4.61548 59.9949
6.17746 -4.18209 59.9883
8.31102 -4.26599 59.9957
8.95002 -4.4502 59.5701
-9.35319 -3.53386 59.5735
-8.46564 -3.72344 59.9887
-7.40943 -3.28203 59.9898
-5.94757 -3.53012 59.9962
-5.09848 -3.88482 59.9986
-4.73241 -3.60872 59.9883
-3.65649 -3.54399 59.9928
-2.89721 -3.57227 59.9873
-1.93078 -3.41629 59.9909
-1.03065 -3.77915 59.9902
-0.325328 -3.57459 59.9943
0.556581 -3.7328 59.9842
1.16903 -3.44443 59.9967
2.10843 -3.50001 59.9891
2.69873 -3.76626 59.9935
4.29018 -3.69486 59.9926
4.96507 -3.34048 59.9891
6.30117 -3.22657 59.9936
6.85142 -3.51803 59.9918
7.62152 -3.92306 59.9921
9.38727 -3.42267 59.5244
-9.62031 -2.72061 59.5241
-9.40872 -2.98446 59.6668
-8.48871 -2.58688 59.9954
-6.90354 -3.03892 59.992
-5.91717 -2.59792 59.9985
-5.11466 -3.02172 59.9968
-4.56412 -2.69472 59.9909
-3.41142 -2.81641 59.994
-2.71374 -2.62986 59.9879
-1.98128 -2.74416 59.9937
-1.14851 -2.83917 59.9832
-0.357339 -2.80424 59.9906
0.407022 -2.87897 59.9924
1.09442 -2.72148 59.9934
1.91148 -2.83924 59.9963
2.79272 -3.07292 59.9969
3.51606 -2.80029 59.9914
4.07201 -2.75463 59.9914
5.28653 -2.70703 59.9976
5.88125 -3.0226 59.9893
6.94008 -2.57262 59.9942
7.77058 -2.89027 59.984
8.31092 -3.09231 59.994
9.59419 -2.81416 59.5435
-9.77501 -2.02913 59.5543
-9.28604 -1.67002 59.9969
-7.21638 -2.20763 59.9935
-6.83844 -2.09875 59.9903
-6.10039 -1.86343 59.9864
-4.4802 -1.98732 59.9926
-3.53473 -1.90964 59.9935
-2.01367 -2.26696 59.9905
-1.18018 -1.93778 59.9977
-0.56392 -2.0473 59.9884
0.197004 -1.9872 59.99
1.10942 -2.13507 59.992
2.0066 -1.93326 59.9941
2.7413 -2.1566 59.994
3.53385 -1.82263 59.9923
4.66016 -2.05464 59.9934
5.96565 -2.21996 59.9885
7.53692 -1.81646 59.9922
8.62353 -2.07611 59.9949
9.7944 -1.98492 59.5136
-9.93086 -1.16348 59.548
-8.91841 -1.59736 59.9931
-7.8843 -1.42132 59.9924
-6.91461 -1.24915 59.9907
-5.22461 -1.25564 59.9948
-4.52901 -1.37861 59.9993
-3.65357 -1.23155 59.9909
-2.73763 -1.38819 59.9951
-2.00272 -1.26527 59.9951
-1.24041 -1.28488 59.9861
-0.431799 -1.17634 59.9928
0.531812 -1.30826 59.9935
1.21098 -1.19509 59.9971
1.82235 -1.10779 59.9885
2.83765 -1.1153 59.9928
3.59605 -1.02601 59.996
4.35747 -1.22568 59.9906
5.32017 -1.28188 59.9935
5.76219 -1.38229 59.993
6.95271 -0.817218 59.9992
7.3923 -0.886184 59.9873
8.24242 -0.981241 59.9859
8.80034 -1.03549 59.9983
9.85537 -1.27888 59.5793
-9.97877 -0.434779 59.6166
-9.23128 -0.558146 59.9959
-8.48129 -0.495596 59.9876
-7.52858 -0.439526 59.9919
-6.68765 -0.397905 59.9959
-5.988 -0.354347 59.9883
-5.1915 -0.306581 59.9897
-4.34588 -0.427299 59.9946
-3.49516 -0.462307 59.9917
-2.78266 -0.424489 59.993
-1.90363 -0.363105 59.9906
-1.25729 -0.467955 59.9899
-0.499784 -0.480286 59.9922
0.481672 -0.495669 59.9903
1.27087 -0.476816 59.9898
2.09776 -0.366903 59.9906
2.99573 -0.354575 59.9989
3.50913 -0.352534 59.9921
4.47995 -0.37342 59.9913
5.05547 -0.59043 59.9882
5.96243 -0.365845 59.992
6.79956 -0.005673 59.9938
9.98691 -0.433567 59.5586
-9.99386 0.464707 59.5656
-9.04787 0.538859 59.993
-7.23246 0.434628 59.9858
-6.69033 0.400028 59.9971
-6.03018 0.352436 59.9942
-5.17849 0.31096 59.9844
-4.36751 0.786237 59.9943
-3.83913 0.457538 59.9878
-2.72671 0.566026 59.9922
-1.90377 0.467615 59.9938
-1.31076 0.547136 59.9901
-0.474019 0.465382 59.9927
0.458878 0.423798 59.991
1.23369 0.459975 59.9943
1.97963 0.438896 59.993
2.91203 0.150839 59.9932
3.64314 0.00680467 59.9975
4.52714 0.444048 59.9851
5.26471 0.325041 59.994
6.06936 0.472137 59.9888
6.9055 0.266396 59.9914
7.7307 0.0046435 59.9889
9.09989 0.00903625 59.9904
9.98151 0.33011 59.5712
-9.9366 1.16177 59.5458
-8.81868 1.58429 59.9949
-8.2764 1.48241 59.9845
-7.80293 1.39804 59.9947
-7.05753 1.28281 59.9955
-6.08965 1.08848 59.9909
-5.09328 1.13007 59.9939
-4.14447 1.2776 59.9957
-3.48699 1.09372 59.9879
-2.93962 1.28559 59.9878
-2.06901 1.08193 59.9927
-1.27583 1.24253 59.9867
-0.504753 1.23897 59.9929
0.536325 1.23119 59.996
1.28484 1.29587 59.9884
1.89212 1.30422 59.9852
2.66825 1.04794 59.9908
3.53229 1.08847 59.9906
4.37291 1.33183 59.9947
5.39865 1.32253 59.9885
5.87743 1.42639 59.9863
7.10131 0.854775 59.988
7.77705 0.913461 59.9892
8.40172 1.00171 59.9938
9.10044 1.09008 59.9797
9.91257 1.31428 59.5873
-9.78429 2.00026 59.5778
-9.29439 1.66254 59.9957
-7.49207 2.28745 59.9944
-6.66363 2.04551 59.9989
-6.04256 1.83958 59.9942
-5.00568 2.20268 59.9877
-3.49515 1.94009 59.9919
-2.88264 2.08108 59.9927
-2.0458 1.97725 59.9957
-1.12207 1.97207 59.9937
-0.470559 2.03484 59.9953
0.371205 2.02131 59.9923
1.09693 1.98991 59.9915
1.98313 2.14089 59.9934
2.95658 1.82786 59.9925
3.78076 1.94216 59.9808
4.36646 2.25188 59.9938
5.30236 1.97878 59.9911
6.37388 2.36918 59.9851
6.6902 1.6245 59.9869
7.70815 1.86125 59.9827
8.33048 2.00937 59.9983
8.80841 2.12568 59.9961
9.79416 2.01016 59.5196
-9.64383 2.62694 59.5513
-9.02521 2.74912 59.9937
-8.29346 2.5496 59.9895
-7.25249 3.19969 59.9927
-6.7335 2.96377 59.9931
-6.00118 2.64197 59.9945
-5.36848 2.75486 59.9841
-4.22492 2.4924 59.9887
-3.4963 2.66314 59.9911
-2.97844 2.89519 59.9948
-1.98234 2.7463 59.9964
-1.25367 2.84936 59.993
-0.469951 2.71496 59.9875
0.465538 2.74544 59.99
1.27125 2.8101 59.9942
2.07115 2.91296 59.9912
2.81136 2.74179 59.992
3.83179 2.57238 59.9853
4.42567 2.6054 59.9956
5.02307 2.56246 59.9871
5.91067 3.03927 59.9928
7.51058 2.78574 59.9891
8.33067 3.07717 59.9949
9.60956 2.76535 59.5429
-9.24434 3.59144 59.6265
-8.10796 3.58938 59.9972
-7.75618 3.43864 59.9877
-6.66585 3.9267 59.9961
-5.83971 3.45078 59.9933
-4.95699 3.77696 59.9968
-4.27272 3.26279 59.9895
-3.65422 3.55036 59.9911
-2.87401 3.69703 59.9948
-1.99195 3.4812 59.9933
-1.2047 3.62912 59.9859
-0.524877 3.58139 59.991
0.335994 3.52076 59.9879
0.923278 3.56488 59.9922
1.78052 3.21653 59.991
2.9578 3.64909 59.9977
3.58062 3.61791 59.9891
4.29691 3.69505 59.9883
4.95883 3.33965 59.9974
6.87843 3.53737 59.9854
7.37957 3.79285 59.9902
9.24116 3.50884 59.6571
-9.01903 4.30346 59.5504
-7.51922 4.43633 59.9969
-6.99451 4.1414 59.9994
-5.92234 4.52015 59.9919
-4.81024 4.66439 59.9926
-4.46248 4.33066 59.9924
-3.68411 4.53651 59.9965
-2.78565 4.39386 59.9963
-2.0257 4.25935 59.9943
-1.22566 4.41318 59.9893
0.423748 4.55682 59.99
1.80402 4.45581 59.9922
2.59093 4.71132 59.9919
3.62659 4.46566 59.993
4.39466 4.43768 59.9912
5.43587 4.67513 59.9995
6.7196 4.54429 59.9941
8.05393 4.13994 59.9883
8.96319 4.41488 59.4807
-8.50943 5.14817 59.5936
-6.90048 5.24523 59.9972
-5.69452 5.54869 59.9917
-5.17321 5.02272 59.9902
-4.21261 5.20857 59.9934
-3.32836 5.26624 59.9883
-2.8287 5.11169 59.9904
-2.0172 4.97832 59.9853
-1.0841 5.17586 59.9941
-0.451341 5.17178 59.9829
0.36665 5.20556 59.9908
1.38824 5.06497 59.9946
2.10495 5.15594 59.994
2.9447 5.33851 59.9927
3.84536 5.36666 59.9962
4.85259 5.28248 59.9877
6.14941 5.29694 59.9865
6.4303 5.55787 59.9956
7.20128 4.84758 59.9944
8.49401 5.24447 59.5524
-8.08874 5.87894 59.5502
-7.66471 6.04153 59.7863
-6.50645 6.32854 59.9973
-6.36985 6.17555 59.9932
-5.05931 6.22051 59.9912
-3.74945 5.94544 59.9953
-2.84104 5.96662 59.9914
-2.02129 5.98507 59.9973
-1.28979 6.13275 59.9941
-0.528975 6.05772 59.9972
0.175936 6.13626 59.9984
1.13108 5.96447 59.9903
2.00302 5.93747 59.9918
2.79551 5.86819 59.9966
3.41072 6.18704 59.9887
4.31506 6.01812 59.9926
5.47603 5.97611 59.9921
5.6674 6.19738 59.9938
6.72189 5.77933 59.9961
7.85558 6.18229 59.5528
8.20983 5.70178 59.539
-7.33252 6.79123 59.5447
-6.99985 6.96746 59.6638
-5.81805 7.18651 59.9891
-5.35815 6.6108 59.9936
-4.16991 6.61956 59.9831
-3.28268 6.899 59.9958
-2.33381 6.86751 59.9943
-1.39476 6.64415 59.9965
-0.615865 6.8695 59.9862
1.01009 6.71049 59.9995
1.88848 6.91512 59.993
2.76754 6.7978 59.9941
3.73157 6.7701 59.993
4.60822 6.42687 59.9877
4.97986 6.93398 59.9915
6.37031 6.95615 59.997
7.13688 7.00138 59.7089
7.40243 6.71887 59.5691
-6.69623 7.42619 59.5226
-6.20985 7.67078 59.7096
-4.9631 7.85657 59.9946
-4.6417 7.33772 60
-3.59484 7.53685 59.9932
-2.5029 7.4188 59.9934
-1.5428 7.39506 59.991
-0.675863 7.5095 59.9966
0.217719 7.2556 59.9887
2.06287 7.54831 59.9928
3.05499 7.52324 59.9929
4.13929 7.52548 59.996
5.38681 7.51204 59.9838
6.2842 7.76587 59.5559
6.8175 7.28308 59.5695
-5.77551 8.16487 59.5511
-5.27203 8.46666 59.5534
-4.78042 8.78339 59.5682
-3.93192 8.26314 59.9949
-2.82235 8.35389 59.9919
-1.7777 8.49606 59.996
-0.737091 8.28461 59.9987
0.257932 8.20884 59.9947
1.21483 8.20788 59.9916
2.30413 8.41518 59.9907
4.65152 8.56424 59.9437
5.17388 8.55443 59.5709
5.67075 8.23388 59.5675
-4.22275 9.02891 59.5855
-3.47357 9.34745 59.5693
-2.96148 9.4144 59.6015
-1.90014 9.04516 59.9939
-0.80714 9.11194 59.9941
-0.792961 8.81218 59.9864
0.268594 9.14469 59.9838
1.38977 9.2272 59.9954
2.85371 9.40287 59.9933
3.57566 9.23244 59.6506
4.38346 8.97538 59.4792
-2.73076 9.63514 59.7377
-1.97267 9.78707 59.5439
-1.04456 9.91359 59.5595
-0.217968 9.99111 59.624
0.45267 9.95642 59.5714
1.28708 9.91751 59.5427
2.06727 9.77893 59.5702
2.7236 9.63007 59.5722
-5.00616 -25.8937 60.4353
-4.5051 -25.8561 60.4484
-3.54186 -25.8729 60.4959
-2.74959 -25.8971 60.4988
-2.00067 -25.8826 60.516
-1.25605 -25.8795 60.5006
-0.446738 -25.8836 60.4523
0.505201 -25.9022 60.4945
1.20609 -25.9033 60.4862
2.02774 -25.8793 60.456
2.7398 -25.9018 60.4846
3.45508 -25.9067 60.4531
4.51521 -25.8868 60.4903
5.00482 -25.8546 60.3381
-5.00685 -25.1677 60.4381
-4.45758 -25.1406 60.5516
-3.48845 -25.2126 60.4917
-2.75376 -25.1977 60.4769
-2.04943 -25.163 60.5224
-1.24217 -25.2091 60.4993
-0.473084 -25.1113 60.5696
0.493655 -25.23 60.4932
1.25488 -25.218 60.5018
2.00448 -25.204 60.5132
2.69409 -25.2385 60.466
3.49199 -25.2206 60.5186
4.55728 -25.1843 60.4556
5.01043 -25.1542 60.325
-5.01062 -24.2603 60.4977
-4.58533 -24.4923 60.4047
-3.49681 -24.4919 60.51
-2.76752 -24.5115 60.4905
-1.98054 -24.4672 60.466
-1.267 -24.508 60.4836
-0.505686 -24.4082 60.4243
0.493907 -24.5242 60.5056
1.2498 -24.4994 60.4844
2.00363 -24.4875 60.4967
2.77593 -24.5095 60.522
3.49253 -24.4909 60.4925
4.50306 -24.5072 60.496
5.00747 -24.414 60.584
-5.00805 -23.4998 60.5217
-4.5265 -23.5474 60.458
-3.48481 -23.6017 60.5685
-2.74883 -23.5158 60.5086
-2.00223 -23.5165 60.5041
-1.24129 -23.4902 60.5082
-0.520166 -23.5413 60.4732
0.486251 -23.5151 60.5011
1.23383 -23.4927 60.5047
1.96654 -23.5294 60.5395
2.72759 -23.4978 60.4977
3.53005 -23.5415 60.4523
4.50176 -23.4993 60.483
5.00823 -23.5361 60.2374
-5.00581 -22.8222 60.1894
-4.46986 -22.8618 60.5485
-3.54031 -22.918 60.3492
-2.75414 -22.7934 60.4905
-2.00914 -22.772 60.4886
-1.27866 -22.7652 60.4954
-0.452485 -22.8411 60.5475
0.488562 -22.7686 60.5129
1.26437 -22.7724 60.5309
2.01116 -22.8411 60.3894
2.76246 -22.7683 60.5113
3.49808 -22.7624 60.4728
4.50594 -22.7701 60.5084
5.00355 -22.8296 60.4527
-5.01221 -21.9217 60.3368
-4.51038 -21.9978 60.4969
-3.48616 -22.0181 60.5066
-2.74698 -21.9991 60.5031
-2.00499 -22.0098 60.5095
-1.25562 -21.9942 60.5103
-0.491012 -21.9995 60.4911
0.496088 -21.9896 60.4916
1.2513 -22.0372 60.5032
2.01068 -21.9991 60.5098
2.73781 -22.0164 60.5021
3.48939 -21.9974 60.4893
4.50546 -21.9789 60.492
5.01193 -21.9911 60.4393
-5.00975 -21.2206 60.5214
-4.50398 -21.2144 60.4864
-3.61989 -21.1062 60.5152
-2.77132 -21.2259 60.4973
-2.00874 -21.213 60.5061
-1.24334 -21.2317 60.5134
-0.545755 -21.143 60.4618
0.440645 -21.1415 60.5431
1.23313 -21.2229 60.5123
2.01018 -21.13 60.5064
2.75286 -21.2486 60.5083
3.43532 -21.1416 60.5494
4.50572 -21.2181 60.5037
5.00537 -21.1777 60.4354
-5.00931 -20.5485 60.3869
-4.51084 -20.4802 60.4842
-3.45615 -20.4708 60.4651
-2.74142 -20.4978 60.4739
-2.00828 -20.4946 60.5048
-1.25111 -20.4976 60.4887
-0.519796 -20.437 60.4611
0.579737 -20.4895 60.4351
1.25282 -20.4956 60.4869
2.0437 -20.4625 60.457
2.75104 -20.5034 60.4931
3.51558 -20.4529 60.48
4.49401 -20.5132 60.4957
5.00991 -20.5195 60.5145
-5.00843 -19.5618 60.4382
-4.50141 -19.4857 60.5039
-3.58621 -19.5133 60.5057
-2.83258 -19.5548 60.5579
-2.01167 -19.5007 60.4714
-1.25412 -19.5109 60.4902
-0.456069 -19.5508 60.5291
0.459864 -19.5309 60.5451
1.25314 -19.4998 60.4692
2.05449 -19.6644 60.5493
2.74266 -19.5972 60.4155
3.50131 -19.5019 60.4915
4.51792 -19.5256 60.5032
5.00832 -19.5521 60.3855
-5.01028 -18.8849 60.4393
-4.53174 -18.7761 60.4956
-3.42948 -18.8553 60.4402
-2.74826 -18.7797 60.4727
-2.01211 -18.7828 60.5016
-1.26112 -18.7912 60.5072
-0.612501 -18.8703 60.3747
0.541688 -18.8431 60.4246
1.25119 -18.7591 60.4967
1.97042 -18.9314 60.4428
2.77562 -18.8942 60.6137
3.48438 -18.7767 60.4884
4.43881 -18.7805 60.4075
5.00352 -18.8812 60.6185
-5.00795 -18.0467 60.4862
-4.51035 -18.0079 60.4037
-3.52976 -17.9485 60.4638
-2.83032 -18.0405 60.5361
-2.00304 -17.9899 60.506
-1.25789 -18.0103 60.5082
-0.491452 -17.9885 60.4975
0.495585 -18.0087 60.4915
1.25601 -18.0137 60.5028
2.01433 -18.0061 60.4914
2.76021 -18.0052 60.51
3.44696 -18.0212 60.4564
4.51577 -18.0359 60.5121
5.00611 -18.1451 60.4887
-5.01087 -17.3292 60.4535
-4.54964 -17.1342 60.5279
-3.48671 -17.0919 60.4246
-2.77086 -17.0668 60.4641
-1.97032 -17.1441 60.4506
-1.26225 -17.0962 60.4357
-0.505156 -17.2218 60.4975
0.538309 -17.1549 60.4574
1.23345 -17.2325 60.4758
1.96749 -17.167 60.5432
2.7711 -17.0924 60.565
3.48969 -17.2089 60.4836
4.55457 -17.1264 60.4455
5.00787 -17.2226 60.4699
-5.00515 -16.6319 60.3288
-4.47734 -16.4423 60.4599
-3.44116 -16.444 60.5517
-2.74819 -16.4258 60.4345
-2.04528 -16.47 60.5292
-1.22761 -16.4078 60.6016
-0.482203 -16.5023 60.5027
0.458923 -16.4663 60.5469
1.25248 -16.5008 60.513
2.0263 -16.5044 60.4205
2.73683 -16.4111 60.4292
3.4897 -16.4906 60.5012
4.43967 -16.4775 60.496
5.00911 -16.5273 60.4521
-5.00622 -15.6522 60.5361
-4.47576 -15.5285 60.4718
-3.49191 -15.5071 60.4973
-2.74057 -15.5027 60.4919
-1.96993 -15.547 60.5381
-1.24938 -15.4903 60.5139
-0.527045 -15.5279 60.4576
0.513819 -15.5513 60.5239
1.26075 -15.4865 60.4879
1.96011 -15.5262 60.4518
2.76016 -15.5217 60.4821
3.48994 -15.4957 60.4977
4.54376 -15.5471 60.4424
5.00928 -15.7615 60.5499
-4.95521 -14.9758 60.4294
-4.50514 -14.8718 60.5022
-3.48479 -14.7998 60.4918
-2.77085 -14.7775 60.4981
-2.04903 -14.8423 60.4391
-1.24101 -14.758 60.5313
-0.493921 -14.7731 60.4911
0.448508 -14.8641 60.4513
1.25569 -14.7666 60.4814
2.01971 -14.7657 60.4779
2.75943 -14.7911 60.5094
3.48483 -14.7519 60.4809
4.46501 -14.8341 60.5456
5.00722 -14.9325 60.3792
-5.00759 -13.9339 60.4965
-4.53529 -13.9956 60.4689
-3.49434 -14.0062 60.49
-2.74662 -13.9883 60.4917
-2.00456 -14.016 60.5027
-1.24979 -14.0209 60.4987
-0.498857 -14.0108 60.5156
0.51302 -14.0119 60.4697
1.25001 -13.9926 60.4853
2.01439 -14.0029 60.501
2.76311 -13.9865 60.4863
3.48804 -14.0045 60.4935
4.47009 -14.0453 60.5395
4.96771 -13.952 60.504
-5.00823 -13.0771 60.4993
-4.51726 -13.2348 60.493
-3.47801 -13.2182 60.5039
-2.76529 -13.2404 60.5107
-2.00732 -13.0884 60.5891
-1.23809 -13.227 60.5351
-0.450492 -13.1627 60.4112
0.49455 -13.2242 60.4601
1.2658 -13.2149 60.5008
2.01292 -13.241 60.5034
2.79466 -13.2232 60.5439
3.48959 -13.2181 60.5002
4.50848 -13.2269 60.4957
5.01026 -13.0881 60.3724
-5.00696 -12.3572 60.3
-4.54585 -12.539 60.4601
-3.54088 -12.5475 60.5458
-2.83838 -12.4476 60.4436
-1.95613 -12.4303 60.3398
-1.25604 -12.5086 60.4967
-0.518916 -12.4526 60.5238
0.4957 -12.51 60.4854
1.23937 -12.5837 60.4159
2.0001 -12.5006 60.5054
2.74295 -12.4913 60.509
3.49299 -12.4838 60.4993
4.52948 -12.4639 60.4594
5.00722 -12.3545 60.5498
-5.00764 -11.644 60.6172
-4.53917 -11.5453 60.4657
-3.53279 -11.545 60.4807
-2.75045 -11.5016 60.4954
-2.0216 -11.5162 60.4713
-1.25152 -11.5113 60.5142
-0.49164 -11.4992 60.5182
0.492213 -11.523 60.5085
1.25263 -11.5143 60.4835
2.03563 -11.5407 60.5262
2.75143 -11.5064 60.4934
3.4506 -11.5264 60.428
4.4748 -11.4626 60.532
4.96698 -11.6152 60.4538
-5.01247 -10.9211 60.3359
-4.44924 -10.8495 60.5568
-3.4205 -10.8272 60.5339
-2.74969 -10.7788 60.4511
-2.07884 -10.7858 60.4442
-1.24517 -10.7852 60.4776
-0.498862 -10.7802 60.4904
0.421761 -10.7964 60.4219
1.24539 -10.792 60.497
1.9568 -10.8468 60.4382
2.74337 -10.7838 60.5166
3.54518 -10.864 60.5416
4.58596 -10.7789 60.4301
5.01278 -10.7723 60.5115
-5.00606 -10.1238 60.4383
-4.49341 -10.1042 60.5161
-3.45409 -10.1445 60.4904
-2.70693 -10.1122 60.5198
-1.99187 -10.1054 60.4189
-1.22896 -10.1098 60.5036
-0.464622 -10.1257 60.4589
0.49577 -10.1119 60.4948
1.25423 -10.0967 60.4618
2.01133 -10.1228 60.4415
2.82383 -10.0575 60.405
3.50767 -10.1296 60.537
4.52785 -10.1073 60.4861
5.00634 -10.0736 60.4072
-4.11731 -9.10005 60.021
-3.55777 -9.35351 60.0018
-3.08434 -9.11088 60.0072
-1.97185 -9.32921 60.0158
-0.813565 -9.21319 60.0023
-0.791998 -8.83846 60.0057
0.280279 -9.24799 60.0099
2.57535 -9.4613 60.0171
3.59213 -9.19508 60.0121
-5.79568 -8.14722 60.0073
-5.17821 -8.39254 60.0133
-4.45979 -8.73387 60.0075
-3.89223 -8.18238 60.0115
-2.8157 -8.31497 60.0071
-0.746267 -8.36851 60.0143
0.240423 -8.11835 60.0054
1.26515 -8.49214 60.007
2.29798 -8.42058 60.0084
3.36811 -8.29966 60.0126
4.69395 -8.53025 60.0034
5.03983 -8.63273 60.0142
5.68097 -8.23029 60.0127
-6.61738 -7.5094 60.0011
-6.12421 -7.68026 60.0077
-4.83313 -7.64999 60.0095
-3.57308 -7.49084 60.0053
-1.69116 -7.92005 60.0151
-1.55373 -7.28292 60.0102
-0.672078 -7.60386 60.0151
0.214023 -7.54795 60.0129
2.10388 -7.63629 60.0028
3.11603 -7.69823 60.0057
4.16674 -7.60456 60.0058
5.30518 -7.39627 60.0154
5.98993 -7.88035 60.0112
6.75624 -7.28782 60.0043
-7.09508 -6.97328 60.0111
-5.50292 -6.77093 60.0098
-4.29649 -6.81764 60.0076
-3.25426 -6.81578 60.0051
-2.32841 -6.87255 60.0024
-1.42103 -6.74457 60.0048
-0.628925 -6.95032 60.0107
1.02575 -6.91716 60.0104
1.86581 -6.83186 60.0111
2.82561 -7.0013 60.0029
3.74748 -6.80062 60.0055
4.84493 -6.75063 60.0041
6.06661 -6.62 60.0114
7.4761 -6.64444 60.0161
-8.11146 -5.8493 60.0039
-7.83676 -6.03841 60.0052
-6.51235 -6.29329 60.0145
-5.95343 -5.79732 60.009
-5.0003 -6.15731 60.0129
-4.33249 -6.05086 60.002
-3.73629 -5.90515 60.0132
-2.89663 -6.07872 60.0039
-2.02457 -5.98522 60.0088
-0.527295 -6.01912 60.0027
0.165953 -5.94717 60.0041
0.901558 -6.01024 60.0043
1.98083 -5.85777 60.0088
3.19302 -5.78588 60.0047
4.38703 -6.10687 60.0096
5.3011 -5.79721 60.0068
5.7399 -6.26101 60.0063
6.71802 -5.79209 60.0026
7.57072 -6.24402 60.0038
8.1943 -5.72084 60.0023
-8.45631 -5.33286 60.0053
-7.04403 -5.38262 60.0113
-6.29407 -4.80546 60.0047
-5.3498 -5.18607 60.0057
-4.19711 -5.16374 60.0029
-3.22696 -5.09096 60.0113
-2.69957 -5.13833 60.0058
-1.6895 -5.00734 60.0046
-1.08908 -5.16195 60.0179
-0.451324 -5.08335 60.0098
0.46049 -5.34891 60.0048
1.51754 -5.44094 60.0011
2.04646 -5.07896 60.0159
2.87279 -5.19806 60.0019
3.80394 -5.29629 60.0079
4.48994 -4.91916 60.0113
5.93797 -5.12288 60.0088
7.19459 -4.84288 60.0014
7.67236 -5.15838 60.007
8.52141 -5.23941 60.0051
-8.9692 -4.40698 60.0061
-8.13971 -4.78847 60.011
-7.55792 -4.45983 60.0121
-6.83527 -4.04102 60.0078
-5.78232 -4.41257 60.0021
-5.13697 -4.42765 60.0036
-4.46802 -4.32469 60.0043
-3.74196 -4.60753 60.0039
-2.6361 -4.1581 60.0132
-2.0806 -4.38904 60.0067
-1.09741 -4.36154 60.0077
-0.379478 -4.33372 60.0015
0.410025 -4.47583 60.0047
1.10643 -4.00632 60.0031
2.36185 -4.30467 60.0076
3.03114 -4.22675 60.0075
3.65852 -4.49384 60.017
5.00492 -4.3071 60.0012
5.95479 -4.00659 60.0072
6.59633 -4.45472 60.0096
7.89263 -4.05384 60.0024
8.35428 -4.29281 60.0174
8.88724 -4.57625 60.0055
-9.15002 -3.63301 60.0026
-7.77692 -3.41386 60.0075
-6.5364 -3.85554 60.0075
-5.68804 -3.35688 60.0125
-4.94411 -3.76244 60.0074
-4.16405 -3.59307 60.0066
-2.58257 -3.81791 60.0057
-1.82701 -3.82394 60.0066
-1.27954 -3.59174 60.0059
-0.52038 -3.51986 60.0054
0.373202 -3.58976 60.0074
1.26782 -3.48079 60.0108
2.06125 -3.41206 60.0085
2.91147 -3.58014 60.0052
3.59976 -3.63709 60.0075
4.28624 -3.67982 60.0012
5.39515 -3.64442 60.0026
5.71251 -3.8413 60.0053
6.73071 -3.44214 60.0187
7.39091 -3.77984 60.0006
8.75522 -3.26153 60.0231
9.26727 -3.56244 60.0118
-9.64685 -2.64727 60.0138
-8.84647 -2.70064 60.0053
-8.29139 -2.54824 60.0114
-6.90607 -3.04623 60.0054
-6.12061 -2.69452 60.0086
-5.43971 -2.79304 60.0016
-4.44533 -2.61588 60.0108
-3.53092 -3.03148 60.0076
-2.81385 -2.75304 60.0071
-1.99452 -2.6602 60.0134
-1.10576 -2.87469 60.0042
-0.267628 -2.82119 60.0033
0.504962 -2.71302 60.0148
1.32628 -2.80124 60.0019
1.79321 -2.73618 60.0086
2.78746 -2.85666 60.0068
3.83762 -2.60077 60.0073
4.53898 -2.8045 60.0122
4.95595 -2.5415 60.0031
5.83111 -3.00539 60.0121
6.54227 -2.41967 60.0075
7.56143 -2.79824 60.015
9.64605 -2.6493 60.0208
-9.81097 -1.95551 60.0136
-9.28761 -1.66079 60.0118
-7.48847 -2.29249 60.0093
-6.59147 -2.01539 60.0098
-5.68274 -1.73913 60.0058
-5.11173 -2.01206 60.0085
-4.30714 -1.90731 60.0014
-3.84011 -1.99655 60.0055
-2.79195 -1.9683 60.0098
-1.86395 -1.88031 60.0084
-1.27561 -2.02569 60.0082
-0.471121 -1.94643 60.0092
0.4545 -1.97385 60.0071
1.19596 -1.91198 60.0107
1.87504 -2.01929 60.0065
2.92679 -1.88997 60.009
3.56714 -2.09696 60.0068
4.26564 -1.8799 60.0112
5.35048 -1.97858 60.0108
6.19696 -2.31076 60.002
6.97413 -1.68345 60.0056
7.70187 -1.86842 60.0084
8.21294 -1.98747 60.006
9.07503 -2.20498 60.0083
9.7583 -2.0038 60.0174
-9.91946 -1.34618 60.0065
-8.38768 -1.5085 60.0077
-7.51206 -1.3347 60.0099
-6.68612 -1.20279 60.0039
-5.98471 -1.07686 60.0075
-5.10626 -0.913982 60.0034
-4.58432 -1.20075 60.0073
-3.69371 -1.14304 60.0037
-2.79769 -1.11252 60.0076
-2.02799 -1.07501 60.0102
-1.04571 -1.2205 60.0064
-0.286296 -1.35635 60.0087
0.430409 -1.22686 60.009
1.3368 -1.02208 60.0093
2.12642 -1.19361 60.0049
2.76373 -1.4215 60.0082
3.74646 -1.16498 60.0129
4.93598 -1.20205 60.0159
6.13824 -1.4768 60.0066
6.77059 -1.19206 60.0115
7.76494 -0.927355 60.0089
8.64671 -1.02589 60.0035
9.18385 -1.08983 60.0063
9.86725 -1.25439 60.008
-9.79499 -0.672254 60.017
-9.05086 -0.542321 60.0031
-8.27832 -0.503873 60.0068
-7.53963 -0.441745 60.0065
-6.97504 -0.412503 60.0101
-5.94225 -0.365734 60.0218
-5.48665 -0.309668 60.0169
-4.39389 -0.531268 60.0156
-3.75383 -0.222723 60.0004
-2.97187 -0.482531 60.0061
-1.91651 -0.397239 60.0088
-1.25155 -0.497389 60.0085
-0.448141 -0.45598 60.0085
0.459103 -0.460247 60.0084
1.16138 -0.177393 60.0096
1.86683 -0.378844 60.0088
2.88369 -0.528613 60.0031
3.85671 -0.224817 60.0098
4.33522 -0.0059515 60.0097
5.3447 -0.315761 60.0071
5.72531 -0.352169 60.0114
6.61619 -0.26825 60.0036
7.51111 -0.00538517 60.0086
8.49275 -0.0102802 60.006
9.04887 -0.008895 60.0011
9.86876 -0.261549 60.0067
-9.89613 0.513877 60.0038
-9.23551 0.542753 60.0118
-8.47479 0.498401 60.0095
-7.71483 0.459927 60.0059
-6.964 0.410234 60.0164
-6.01304 0.354022 60.0068
-5.46877 0.319377 60.0025
-4.34794 0.427762 60.0065
-3.41851 0.42394 60.0063
-2.98827 0.363194 60.009
-2.02423 0.433901 60.0077
-1.0534 0.359946 60.0092
-0.353767 0.561139 60.0062
0.449104 0.500244 60.0088
1.22304 0.511904 60.0077
2.1012 0.363679 60.0109
2.78195 0.432074 60.0097
3.47849 0.244151 60.0047
4.38258 0.35631 60.012
5.0233 0.303928 60.0091
5.92682 0.360492 60.0055
6.79913 0.007497 60.0054
7.74023 0.0064885 60.0044
8.31108 0.002103 60.0092
9.23895 0.00505733 60.0107
9.71358 0.008202 60.0014
-9.91864 1.33158 60.0134
-8.54153 1.53229 60.0055
-7.33502 1.31714 60.006
-6.77491 1.21958 60.0113
-5.32126 1.17862 60.0127
-4.55384 1.19191 60.0056
-3.6027 1.08726 60.0124
-2.69889 1.33458 60.005
-1.72234 1.391 60.0066
-1.21687 1.18112 60.0087
-0.548025 1.25887 60.0057
0.494021 1.29959 60.0067
1.16179 1.09494 60.0094
1.88674 1.14186 60.0068
3.078 1.14925 60.0072
4.30739 1.0451 60.014
5.04115 1.21672 60.0108
6.01781 1.4537 60.0071
6.74841 0.805271 60.0116
7.40327 0.887939 60.0019
8.25144 0.994657 60.0181
9.36725 1.11416 60.0141
9.81499 1.02131 60.0076
-9.8432 1.62016 60.0005
-9.2788 1.67002 60.0138
-7.48647 2.27895 60.006
-6.85745 2.10143 60.0151
-6.05338 1.85028 60.0035
-5.27923 2.30949 60.0118
-4.38819 2.07515 60.0098
-3.60037 1.9312 60.0061
-1.96423 2.0751 60.0062
-1.11807 1.90629 60.0087
-0.449167 2.0015 60.008
0.40995 1.94797 60.0062
1.28788 1.9958 60.0056
1.85683 1.99315 60.0097
2.68939 2.05022 60.0082
3.48246 2.06905 60.0031
4.41219 1.832 60.0069
5.31926 1.98521 60.0019
5.92387 2.20325 60.0109
6.97307 1.68637 60.0114
7.24971 1.74128 60.0035
8.04986 1.9499 60.0007
9.26456 2.23723 60.0003
9.76493 1.99692 60.0068
-9.43551 2.91455 60.0074
-8.49405 2.57534 60.014
-7.25302 3.19763 60.0054
-6.72232 2.96844 60.006
-6.04723 2.66754 60.003
-5.20698 3.07288 60.0098
-4.55977 2.69376 60.0098
-3.67103 2.81975 60.0051
-2.99915 2.88401 60.0131
-1.99315 2.73616 60.0014
-1.33389 2.80941 60.0064
-0.490736 2.971 60.0108
0.541813 2.89544 60.0046
0.939261 2.52554 60.0157
1.99043 2.60512 60.0069
2.54928 2.77838 60.0212
3.48371 2.78707 60.0026
4.55901 2.82378 60.0058
5.29093 2.72014 60.0174
5.87195 3.01631 60.0248
6.66722 2.48623 60.0092
7.25216 2.70828 60.0138
8.31199 3.08167 60.0096
9.55667 2.93606 60.0022
-9.25233 3.77708 60.0082
-8.37078 3.6954 60.0053
-7.77493 3.41474 60.0111
-6.33457 3.74315 60.0052
-4.42415 3.81295 60.0104
-3.60075 3.48754 60.0156
-2.96856 3.66607 60.0051
-1.95506 3.55091 60.0079
-1.08145 3.21634 60.0088
-0.566957 3.72997 60.0111
0.433256 3.68679 60.0051
1.47471 3.60252 60.0062
2.10358 3.49567 60.0102
2.57992 3.61306 60.0071
4.28764 3.70179 60.0021
5.39248 3.62751 60.0161
5.70891 3.85384 60.0088
6.62317 3.39854 60.0006
7.72152 3.96233 60.0119
8.65481 3.22319 60.017
9.19354 3.41225 60.0115
-8.93288 4.44176 60.0028
-7.62818 4.50912 60.0021
-6.83421 4.0327 60.0101
-5.97546 4.56275 60.0037
-5.31191 4.05664 60.0122
-4.31071 4.19706 60.0005
-3.58651 4.4237 60.0053
-2.89016 4.58302 60.003
-2.08301 4.37183 60.0023
-1.21355 4.40433 60.0092
-0.386532 4.42201 60.01
0.300197 4.31862 60.0047
1.19165 4.36146 60.005
2.02664 4.24731 60.0097
3.05166 4.24979 60.009
3.58709 4.42466 60.0172
5.18089 4.46395 60.0054
6.11425 4.11692 60.0067
6.70677 4.52167 60.0127
7.89164 4.03295 60.0039
8.46533 4.34364 60.0033
8.96093 4.42965 60.0066
-8.4976 5.07877 60.0065
-6.85638 5.23597 60.0058
-5.48034 5.31704 60.0087
-4.22932 5.19495 60.0075
-2.51488 5.26959 60.0058
-1.81 5.35715 60.0126
-1.00191 4.80292 60.0052
-0.461104 5.16308 60.008
0.464432 5.10579 60.0099
1.14019 5.43761 60.0188
2.20625 5.42715 60.0023
2.72873 4.96538 60.0067
3.5294 4.91201 60.0139
4.72604 5.1371 60.0102
5.76099 4.95238 60.009
7.50942 5.05299 60.0118
8.59989 5.10507 60.0024
-8.20059 5.75149 60.003
-7.4905 5.72199 60.0036
-6.06692 5.90036 60.0103
-4.33668 6.03585 60.0094
-3.63141 5.7406 60.0223
-2.90957 6.08741 60.006
-2.02416 5.96978 60.0069
-1.22635 5.85954 60.0087
-0.516006 5.82724 60.0028
0.183001 6.07198 60.0067
1.24569 5.99692 60.005
2.39614 5.92237 60.0162
2.58984 6.37624 60.002
3.23514 5.86414 60.0114
4.17644 5.83029 60.0107
5.22757 5.6943 60.0126
6.72023 5.78916 60.0051
7.47984 6.27504 60.0072
8.18773 5.74262 60.0126
-7.22337 6.81581 60.0098
-6.82731 6.70238 60.0085
-5.51992 6.80868 60.009
-4.38449 6.93689 60.0085
-3.16202 6.64749 60.0127
-2.25059 6.61337 60.0145
-1.44323 6.92708 60.0038
-0.625825 6.86748 60.0042
0.199687 6.7933 60.0097
1.00855 6.70959 60.0107
2.77493 6.86231 60.0143
4.72416 6.59407 60.0138
6.00634 6.56921 60.0052
6.48051 7.10213 60.0056
7.46818 6.67023 60.0061
-6.71693 7.40108 60.0118
-6.17289 7.74228 60.0122
-4.62958 7.34041 60.0065
-3.64422 7.65936 60.0071
-2.66662 7.8848 60.0014
-1.62285 7.76353 60.0046
-1.52502 7.21211 60.0019
-0.670546 7.577 60.0084
0.229505 7.73187 60.006
1.1168 7.50804 60.0104
2.0633 7.55853 60.0074
3.11206 7.68544 60.0127
4.19742 7.60951 60.0092
5.22141 7.28576 60.003
5.82041 7.8958 60.0088
6.72292 7.39594 60.0035
-5.90157 8.05966 60.0026
-5.20827 8.41489 60.0043
-4.04347 8.52453 60.0116
-2.89046 8.59064 60.0066
-1.77433 8.44497 60.0055
-0.763878 8.46132 60.0066
0.26222 8.58665 60.0163
1.30364 8.76514 60.0041
2.28865 8.36642 60.0011
3.40211 8.39655 60.0077
4.46815 8.0895 60.0041
5.84575 8.12735 60.0014
-4.29147 9.02339 60.0067
-3.85307 9.21659 60.019
-3.09108 9.44739 60.0046
-1.95242 9.21433 60.0064
-0.846704 9.40339 60.0102
0.285123 9.14846 60.0162
2.53723 9.28178 60.0087
3.67214 9.07685 60.0061
-2.72283 9.60978 60.0032
-1.92629 9.81616 60.0044
-0.860282 9.91493 60.008
-0.069384 10.0074 60.0098
0.396826 9.86812 60.0066
1.3693 9.7562 60.0055
2.63356 9.63827 60.0171
-4.94548 -25.9269 61.2754
-4.46003 -25.9168 61.0703
-3.46824 -25.9075 61.1419
-2.8994 -25.9194 61.2972
-2.02088 -25.889 61.2692
-1.24678 -25.8836 61.2888
-0.531878 -25.9224 61.1427
0.499592 -25.8893 61.2508
1.26063 -25.8895 61.2474
1.99418 -25.9365 61.1607
2.75261 -25.8846 61.2148
3.53505 -25.8589 61.1843
4.53899 -25.9167 61.2413
5.01496 -25.8758 61.3404
-5.00329 -25.0809 61.0546
-4.59512 -25.077 61.2568
-3.56961 -25.1087 61.2395
-2.73106 -25.1902 61.2796
-1.9219 -25.0801 61.2267
-1.27506 -25.2449 61.2156
-0.496109 -25.233 61.2585
0.420332 -25.1253 61.2361
1.22507 -25.2596 61.2762
1.99222 -25.2043 61.2515
2.75925 -25.2114 61.2816
3.39666 -25.0996 61.256
4.42859 -25.097 61.2647
5.0087 -25.1696 61.2421
-5.00739 -24.389 61.2662
-4.41204 -24.3416 61.1308
-3.40611 -24.4033 61.2427
-2.71874 -24.4725 61.2402
-2.07624 -24.4245 61.2398
-1.243 -24.484 61.2714
-0.489556 -24.4917 61.2473
0.578861 -24.419 61.2564
1.23956 -24.4834 61.2885
2.00557 -24.4746 61.2269
2.732 -24.5087 61.2534
3.57568 -24.4242 61.2475
4.51634 -24.3763 61.1537
5.00639 -24.2853 61.3562
-5.00891 -23.6706 61.3106
-4.48878 -23.4949 61.2264
-3.48862 -23.5028 61.2822
-2.72589 -23.4621 61.2178
-1.99066 -23.5059 61.2594
-1.22047 -23.4921 61.2391
-0.473704 -23.4893 61.2534
0.49842 -23.5088 61.2554
1.27829 -23.5059 61.2366
2.00922 -23.4948 61.2454
2.74437 -23.5243 61.234
3.46204 -23.502 61.1313
4.50332 -23.503 61.2284
5.00576 -23.5429 61.0416
-5.01093 -22.9147 61.1336
-4.4659 -22.7873 61.2553
-3.48832 -22.781 61.0399
-2.95575 -22.7729 61.2442
-2.03816 -22.7907 61.2319
-1.24979 -22.7661 61.2301
-0.48533 -22.7697 61.2421
0.498748 -22.7965 61.2578
1.23912 -22.7736 61.2372
2.08559 -22.7794 61.1355
2.76866 -22.7917 61.2662
3.40381 -22.9014 61.2657
4.50498 -22.7773 61.2274
5.00227 -22.7778 61.3756
-5.00695 -21.9743 61.069
-4.49498 -22.0193 61.2349
-3.49568 -21.9986 61.26
-2.74842 -22.0032 61.2594
-2.02107 -22.0195 61.2499
-1.24157 -22.0098 61.2502
-0.495561 -22.002 61.2619
0.478078 -21.9996 61.2285
1.24994 -21.9958 61.2553
2.00626 -22.0035 61.2419
2.76995 -21.9523 61.2273
3.4909 -22.0057 61.2637
4.50565 -22.0106 61.2324
5.01282 -22.0946 61.2211
-5.00842 -20.973 61.2003
-4.51667 -21.254 61.2893
-3.41357 -21.2376 61.1249
-2.70956 -21.2169 61.214
-2.02312 -21.2104 61.2784
-1.2668 -21.028 61.2534
-0.410491 -21.0986 61.2709
0.496712 -21.2061 61.2682
1.21477 -21.2476 61.2299
1.96847 -21.0599 61.1708
2.71792 -21.2526 61.2376
3.48615 -21.249 61.2393
4.51391 -21.2409 61.2636
5.00387 -21.1215 61.2454
-5.00352 -20.17 60.9899
-4.51353 -20.4824 61.2355
-3.49447 -20.5089 61.2474
-2.79172 -20.5001 61.2519
-2.00961 -20.4822 61.2555
-1.28333 -20.1813 61.2556
-0.454636 -20.4366 61.0871
0.433205 -20.4443 61.176
1.24301 -20.4969 61.2582
2.00207 -20.2455 61.2233
2.75547 -20.498 61.2396
3.48521 -20.4922 61.2583
4.51428 -20.4878 61.2515
5.01227 -20.1689 61.3041
-5.00737 -19.5191 61.3761
-4.52886 -19.4973 61.2729
-3.49454 -19.4991 61.2701
-2.73743 -19.5106 61.2328
-1.97958 -19.5112 61.2549
-1.22053 -19.4851 61.2538
-0.490693 -19.5022 61.2288
0.566121 -19.6062 61.2261
1.261 -19.4766 61.2299
2.01244 -19.5036 61.2673
2.75775 -19.4983 61.2502
3.50283 -19.4904 61.2495
4.507 -19.497 61.2495
5.00748 -19.5038 61.2631
-5.00637 -18.9136 61.0151
-4.48847 -18.7869 61.2656
-3.48971 -18.7552 61.2297
-2.75114 -18.7969 61.2338
-2.01631 -18.7725 61.2551
-1.24003 -18.7749 61.2717
-0.410516 -18.777 61.1089
0.423286 -18.9182 61.2367
1.23654 -18.7926 61.2551
1.99556 -18.7812 61.2424
2.6966 -18.79 61.2643
3.47829 -18.782 61.2507
4.57118 -18.7927 61.1095
5.00602 -18.8349 61.495
-5.00871 -17.9398 61.3244
-4.50722 -17.9927 61.1115
-3.49619 -18.0197 61.2634
-2.72968 -17.9596 61.2141
-1.99818 -18.0279 61.263
-1.25281 -17.9953 61.2606
-0.488061 -18.0247 61.2419
0.490891 -18.0135 61.2481
1.24025 -18.0319 61.2411
1.99933 -17.9577 61.247
2.73569 -17.9378 61.2496
3.54243 -17.9313 61.163
4.50225 -17.9828 61.2439
5.00894 -17.8159 61.067
-5.00945 -17.3314 61.3362
-4.49644 -17.2314 61.224
-3.47141 -17.2414 61.2297
-2.75168 -17.2315 61.0236
-2.03472 -17.2426 61.224
-1.22803 -17.2069 61.2856
-0.486491 -17.1788 61.235
0.496318 -17.2468 61.2292
1.27361 -17.2578 61.2086
1.94137 -17.1115 61.2411
2.78348 -17.0142 61.2217
3.46469 -17.2153 61.2332
4.48505 -17.1986 61.2092
5.00959 -17.0261 61.2099
-5.00867 -16.3741 61.0786
-4.49799 -16.4867 61.2495
-3.55241 -16.4524 61.1628
-2.72758 -16.4989 61.2529
-1.99435 -16.4839 61.2406
-1.27124 -16.4876 61.2424
-0.494476 -16.4789 61.242
0.489137 -16.4924 61.2781
1.24186 -16.4816 61.2374
2.11747 -16.3446 61.1196
2.73425 -16.2367 61.1953
3.5076 -16.5012 61.2457
4.5552 -16.406 61.1672
5.00913 -16.2534 61.2535
-5.0079 -15.5336 61.2454
-4.58793 -15.579 61.2543
-3.48397 -15.5189 61.2544
-2.77297 -15.5144 61.2417
-2.02684 -15.5235 61.2277
-1.234 -15.7466 61.2666
-0.506179 -15.4941 61.2379
0.485022 -15.5105 61.2575
1.24921 -15.5024 61.2566
2.06916 -15.4465 61.1631
2.75112 -15.4971 61.272
3.4793 -15.5019 61.2637
4.56028 -15.583 61.2429
5.00876 -15.5888 61.1689
-5.00381 -14.9982 61.269
-4.43918 -14.9113 61.2708
-3.47473 -14.7771 61.2244
-2.72555 -14.779 61.2291
-2.00216 -14.7912 61.2235
-1.24307 -14.9847 61.2506
-0.420554 -14.9048 61.1075
0.469171 -14.8081 61.2577
1.23267 -14.7941 61.2338
2.00643 -14.7794 61.2714
2.76911 -14.7969 61.2248
3.50903 -14.7944 61.2432
4.42625 -14.8925 61.2491
5.01297 -14.9241 61.332
-5.00876 -13.9685 61.2009
-4.47095 -14.0259 61.1662
-3.4794 -14.0137 61.2379
-2.74497 -14.0487 61.2318
-1.9988 -14.0038 61.2756
-1.25987 -14.0213 61.2154
-0.495345 -14.021 61.2786
0.442563 -13.9499 61.1619
1.24265 -13.9944 61.264
2.00566 -13.9923 61.2642
2.766 -14.029 61.2343
3.4875 -13.9725 61.2634
4.51418 -14.0114 61.2622
5.00607 -13.9875 61.3002
-5.00134 -13.3276 61.0756
-4.51294 -13.2182 61.2412
-3.46758 -13.2496 61.2576
-2.78975 -13.2442 61.2791
-2.02876 -13.2345 61.2646
-1.25209 -13.0571 61.2591
-0.484657 -13.212 61.2423
0.549608 -13.089 61.2203
1.22927 -13.2153 61.2017
1.92719 -13.0797 61.2248
2.76586 -13.244 61.276
3.46674 -13.2489 61.25
4.48953 -13.2182 61.2319
5.00723 -13.2469 61.217
-5.00639 -12.5008 61.2802
-4.46509 -12.4439 61.1613
-3.49334 -12.5018 61.2549
-2.74664 -12.4824 61.2605
-2.07222 -12.4482 61.1397
-1.24384 -12.2162 61.2908
-0.484894 -12.5051 61.2349
0.426643 -12.4101 61.2381
1.26174 -12.4275 61.1259
2.0999 -12.4106 61.2611
2.76024 -12.4951 61.2096
3.49637 -12.5085 61.2526
4.47094 -12.5463 61.1732
5.01143 -12.4424 61.1872
-5.00847 -11.535 61.2548
-4.56536 -11.6191 61.2427
-3.41954 -11.5724 61.2419
-2.76081 -11.4968 61.2607
-2.00191 -11.4892 61.2472
-1.25554 -11.4944 61.2174
-0.420886 -11.6141 61.2595
0.489797 -11.4922 61.2329
1.23755 -11.5251 61.2418
1.99934 -11.5092 61.2539
2.70886 -11.7748 61.2368
3.4663 -11.5245 61.2277
4.50591 -11.7798 61.2374
5.00399 -11.4936 61.2754
-5.0071 -10.7443 61.184
-4.43195 -10.8966 61.2631
-3.57791 -10.9022 61.2443
-2.77046 -10.7653 61.2423
-1.95809 -10.7845 61.1159
-1.23651 -10.7615 61.2494
-0.566549 -10.9146 61.2602
0.578633 -10.777 61.1
1.27419 -10.824 61.2743
2.00576 -10.8007 61.2591
2.72745 -10.982 61.229
3.50713 -10.8112 61.2415
4.45865 -10.9104 61.175
5.01359 -10.774 61.3326
-5.00886 -10.202 61.2553
-4.52034 -10.116 61.2595
-3.56253 -10.076 61.1759
-2.73735 -10.0927 61.1752
-2.02505 -10.0755 61.2119
-1.15435 -10.0739 61.0822
-0.487858 -10.1218 61.2858
0.467538 -10.0975 61.2291
1.16688 -10.0924 61.2987
2.0097 -10.118 61.1018
2.73211 -10.1185 61.2364
3.5167 -10.099 61.2232
4.48009 -10.1094 61.2591
5.00768 -10.1576 61.0597
-4.9658 -25.8772 62.0455
-4.46817 -25.875 61.9671
-3.50565 -25.8901 61.9766
-2.75037 -25.8888 62.0122
-2.01934 -25.8886 62.0236
-1.23443 -25.8925 62.0167
-0.495647 -25.8909 62.004
0.485455 -25.8874 62.008
1.24435 -25.8894 62.0031
2.01284 -25.8866 61.9824
2.83447 -25.9173 61.9961
3.53017 -25.8768 61.9671
4.50108 -25.8934 61.9481
5.00637 -25.917 62.2558
-5.00758 -25.2012 61.9874
-4.49642 -25.088 61.9893
-3.49361 -25.2362 61.9978
-2.88024 -25.1258 62.1034
-2.00181 -25.2051 62.0084
-1.23771 -25.23 61.996
-0.48362 -25.2213 62.0118
0.419781 -25.0806 61.978
1.25348 -25.2055 62.0026
2.00676 -25.0985 62.0832
2.74604 -25.2315 62.0437
3.49954 -25.2113 62.0079
4.49758 -25.2408 62.0191
5.00747 -25.0646 62.0382
-5.00598 -24.4703 61.9332
-4.50427 -24.3846 61.984
-3.53538 -24.4659 61.9683
-2.76518 -24.5313 61.9775
-2.01868 -24.4919 61.9916
-1.24789 -24.5102 62.0082
-0.483302 -24.4951 61.9995
0.564491 -24.3846 61.9909
1.24224 -24.4888 62.0315
2.00572 -24.4035 61.9318
2.83733 -24.5558 61.9482
3.53925 -24.4625 62.0362
4.51114 -24.5076 62.0154
5.00623 -24.3349 62.0142
-5.00832 -23.5768 61.9205
-4.51252 -23.4955 62.0056
-3.49651 -23.601 62.0062
-2.7409 -23.601 62.0987
-2.02255 -23.5386 61.966
-1.24896 -23.5993 61.9134
-0.48579 -23.5144 61.9972
0.523909 -23.5415 62.0341
1.25368 -23.4926 61.9983
2.02466 -23.4923 61.988
2.76846 -23.5151 61.9978
3.4913 -23.512 61.998
4.51629 -23.5987 62.0676
5.00484 -23.6384 61.9852
-4.94014 -22.8077 61.9248
-4.4423 -22.7926 62.0619
-3.48763 -22.8924 61.9943
-2.75687 -22.8887 61.8982
-1.96293 -22.8416 62.0487
-1.25124 -22.9059 62.0955
-0.50455 -22.7803 61.9866
0.455973 -22.8521 61.9604
1.27216 -22.7905 61.9958
1.99112 -22.7658 61.9623
2.74043 -22.7697 62.034
3.4912 -22.7845 61.9876
4.49388 -22.9122 61.9174
5.00911 -22.7928 61.9999
-4.96604 -22.1292 61.9746
-4.46269 -21.9827 62.0409
-3.48562 -21.9752 62.0089
-2.75202 -21.9759 62.0147
-2.00845 -22.0125 62.0034
-1.24707 -21.9988 61.9979
-0.49555 -22.0187 62.0023
0.486896 -22.0053 61.9762
1.24882 -22.0105 61.9882
2.00709 -21.9896 61.982
2.75524 -22.0272 61.9984
3.48692 -22.0212 62.0048
4.50606 -21.9823 61.9878
5.00878 -22.0339 61.9694
-5.00914 -21 62.0025
-4.51612 -21.2095 62.0121
-3.48559 -21.2176 61.9797
-2.74727 -21.0935 61.9179
-1.99927 -21.2244 62.0065
-1.26106 -21.2342 61.9867
-0.546935 -21.1488 62.0544
0.499236 -21.0894 62.0983
1.25805 -21.2032 61.9741
1.9662 -21.1474 62.051
2.75205 -21.2359 61.9993
3.48525 -21.2196 61.9773
4.50996 -21.2147 61.9986
5.0087 -21.1684 62.0257
-4.93605 -20.2929 62.1299
-4.48623 -20.5427 61.9733
-3.53075 -20.4576 61.9588
-2.84993 -20.4913 62.1199
-2.00492 -20.492 62.0064
-1.24842 -20.5206 61.996
-0.449383 -20.4683 61.9798
0.496569 -20.4018 61.9447
1.24429 -20.4792 61.9866
2.03039 -20.46 61.99
2.85296 -20.5511 62.0525
3.52853 -20.4611 61.9709
4.45957 -20.4575 62.0316
4.97072 -20.5439 61.8937
-5.00475 -19.4056 62.0952
-4.51224 -19.6067 61.9349
-3.48651 -19.5953 62.009
-2.75714 -19.4892 61.9744
-1.98327 -19.5396 61.9835
-1.24957 -19.5115 62.0312
-0.491088 -19.4991 61.9726
0.528062 -19.5433 62.0418
1.26098 -19.5006 61.9974
2.04601 -19.5587 62.0295
2.74571 -19.5106 61.9796
3.44925 -19.5299 61.9669
4.47774 -19.4713 61.9852
4.90392 -19.7792 62.0134
-5.0052 -18.7775 61.9956
-4.50353 -18.908 62.0942
-3.54335 -18.9383 62.0368
-2.90607 -18.757 61.9168
-2.06075 -18.8725 62.0689
-1.24226 -18.7722 62.0189
-0.482624 -18.7858 61.9884
0.445542 -18.8561 61.9403
1.2506 -18.7685 61.9783
1.97123 -18.8514 61.9607
2.76977 -18.7917 62.016
3.54079 -18.8429 62.0659
4.49977 -18.7821 62.003
5.00953 -18.9661 62.0064
-5.00731 -17.9094 62.0332
-4.50949 -18.0067 62.0047
-3.48778 -18.0134 62.0033
-2.73178 -18.0397 61.9848
-2.00253 -18.0078 62.021
-1.24374 -17.9914 61.9955
-0.483793 -17.9832 61.9867
0.49919 -18.0054 61.9954
1.26217 -18.0027 61.9831
2.01124 -17.998 61.9893
2.74913 -18.034 61.9849
3.49012 -17.9924 61.9989
4.50173 -17.9703 62.0077
5.00822 -17.9922 62.0249
-5.00733 -17.0016 62.0251
-4.46948 -17.1528 61.9512
-3.4358 -17.1621 61.975
-2.7754 -17.2319 61.9798
-1.92529 -17.0977 61.9993
-1.25861 -17.2663 61.9851
-0.5125 -17.2252 61.9652
0.489606 -17.0847 61.94
1.22441 -17.0885 61.9248
2.00669 -17.2224 61.9728
2.72435 -17.2252 61.9998
3.49327 -17.1067 61.9151
4.52113 -17.2014 61.9709
5.0068 -17.1349 62.0434
-5.00565 -16.3666 62.0301
-4.53033 -16.4575 62.0504
-3.52369 -16.4686 62.0261
-2.75742 -16.5155 61.9884
-2.08493 -16.4065 61.9896
-1.25772 -16.5125 62.0124
-0.482006 -16.4886 62.0125
0.486168 -16.389 62.0945
1.26876 -16.4277 62.1077
2.00764 -16.5013 62.0018
2.76951 -16.4964 61.9957
3.49106 -16.4103 62.083
4.51233 -16.489 61.9879
5.00544 -16.4412 61.982
-4.96696 -15.6171 62.0262
-4.50188 -15.5134 62.002
-3.52837 -15.5366 61.9614
-2.73249 -15.5072 61.997
-2.04767 -15.5409 62.0372
-1.25163 -15.5048 61.9978
-0.515174 -15.5501 62.0205
0.529706 -15.5469 62.0485
1.24058 -15.5009 62.0042
2.04424 -15.547 61.9693
2.83706 -15.5724 62.0579
3.52763 -15.461 61.9585
4.51634 -15.5036 61.9929
5.00956 -15.5146 61.9447
-5.0091 -14.8312 61.9743
-4.4568 -14.8403 62.0639
-3.4219 -14.8344 62.0412
-2.75567 -14.7964 61.998
-1.9557 -14.8437 61.9306
-1.23864 -14.7605 62.0004
-0.442681 -14.8521 61.9547
0.456853 -14.8728 61.962
1.26747 -14.767 61.9894
1.95421 -14.8583 62.0586
2.72406 -14.8119 61.982
3.49173 -14.7692 61.9861
4.5168 -14.7878 61.9871
5.00623 -14.6745 62.1822
-5.00666 -14.0037 61.9969
-4.49392 -13.9645 62.0026
-3.49405 -13.9936 61.9958
-2.76595 -14.0015 62.0026
-2.01299 -13.999 62.0077
-1.25691 -13.9941 61.9871
-0.49385 -14.0094 62.0022
0.491857 -13.9998 62.0017
1.25523 -13.9975 61.9837
2.00881 -13.9925 61.9933
2.75955 -13.9737 61.997
3.48771 -14.0237 62.0036
4.49303 -14.0163 62.0073
5.00673 -14.0042 61.9927
-5.0047 -13.1319 61.9947
-4.45502 -13.1416 62.0518
-3.43121 -13.1549 61.9621
-2.74321 -13.2012 61.9987
-1.99887 -13.2215 61.9938
-1.23887 -13.2413 62.0343
-0.468897 -13.2334 61.9938
0.458212 -13.1357 61.9578
1.23622 -13.2415 62.0168
2.01882 -13.2249 62.0009
2.75675 -13.2169 61.9375
3.54297 -13.1323 62.0693
4.47078 -13.1344 61.9437
5.0047 -13.3384 61.9419
-5.00615 -12.394 61.9381
-4.53608 -12.4682 61.9642
-3.53302 -12.4646 62.0258
-2.78884 -12.5196 62.0009
-2.02033 -12.4939 61.9832
-1.24619 -12.4993 62.0042
-0.486928 -12.4983 62.0043
0.523349 -12.4584 62.0247
1.24696 -12.5065 62.0094
1.99177 -12.5063 61.9965
2.73964 -12.4823 62.0048
3.45801 -12.446 61.9584
4.54635 -12.4433 62.0288
5.00859 -12.5197 62.0588
-5.00943 -11.5873 62.0498
-4.46434 -11.5529 61.9619
-3.48049 -11.4987 62.006
-2.74158 -11.5251 61.9773
-2.00224 -11.4892 62.0089
-1.26419 -11.5034 62.0161
-0.491363 -11.497 62.0069
0.482657 -11.5002 61.9854
1.26243 -11.5071 62.0137
2.01099 -11.5013 61.9684
2.74377 -11.491 62.0069
3.47713 -11.5018 61.9867
4.51622 -11.5887 61.9166
4.94174 -11.6111 62.0615
-5.01194 -10.9978 61.7582
-4.57085 -10.8598 62.0498
-3.50818 -10.7656 62.0128
-2.75502 -10.7779 61.9993
-2.0065 -10.7713 62.0289
-1.25099 -10.7903 61.9859
-0.503105 -10.758 61.993
0.510359 -10.7741 61.999
1.23768 -10.7712 62.0007
2.01681 -10.7694 61.9805
2.75071 -10.7873 61.9947
3.50702 -10.7742 61.9973
4.46978 -10.8585 62.0542
5.00629 -10.9739 61.9466
-4.9644 -10.1339 62.0147
-4.47976 -10.1156 62.0467
-3.54915 -10.1182 61.9774
-2.86604 -10.0981 62.0469
-2.05585 -10.1302 62.0337
-1.24574 -10.1224 61.921
-0.492684 -10.1159 61.9697
0.456154 -10.1133 61.9443
1.24938 -10.1159 62.0079
2.00338 -10.1126 61.9941
2.76118 -10.1186 61.975
3.50223 -10.1099 61.9774
4.51304 -10.1063 62.0212
5.00835 -10.1144 62.022
-5.00751 -25.9486 62.7714
-4.48148 -25.889 62.8532
-3.48194 -25.8566 62.8575
-2.85429 -25.8856 62.9037
-2.03881 -25.8568 62.8765
-1.08908 -25.778 62.8775
-0.413512 -25.8962 62.8353
0.516537 -25.8909 62.8318
1.22169 -25.9004 62.9102
2.04422 -25.8448 62.8738
