-0.128493 0.482866 4.62074
-0.100064 0.489819 4.62073
-0.0632011 0.4957 4.62095
-0.0187895 0.499702 4.62069
0.0186209 0.499714 4.62064
0.0556659 0.496713 4.62087
0.0998983 0.489672 4.62084
0.128453 0.483321 4.62124
-0.128665 -0.48312 4.66359
-0.0999531 -0.489729 4.66374
-0.0631936 -0.495901 4.66344
-0.0185647 -0.499388 4.66344
0.0182946 -0.499475 4.6635
0.0554469 -0.496975 4.66334
0.0997447 -0.489755 4.66361
0.131893 -0.482332 4.66358
-0.219111 -0.449146 4.66352
-0.178052 -0.467167 4.66343
-0.14995 -0.476835 4.66394
0.151358 -0.476367 4.66359
0.185088 -0.464083 4.6632
0.219449 -0.449323 4.66345
-0.290012 -0.40748 4.66344
-0.258148 -0.428032 4.66352
0.239286 -0.439427 4.66347
0.264867 -0.42405 4.66357
0.289514 -0.407346 4.66394
-0.333661 -0.372348 4.66352
-0.311999 -0.39111 4.66364
0.307589 -0.394239 4.66316
0.334626 -0.371621 4.66349
-0.372598 -0.332841 4.66341
-0.351781 -0.355345 4.66341
0.354916 -0.351902 4.66325
0.372419 -0.333807 4.66363
-0.405426 -0.292396 4.6638
-0.392226 -0.31076 4.66372
0.391622 -0.310805 4.6635
0.409501 -0.286213 4.66376
-0.42582 -0.261698 4.66353
0.429778 -0.255218 4.6636
-0.448238 -0.221077 4.66341
-0.439875 -0.236664 4.66399
0.450758 -0.215726 4.66363
-0.465599 -0.18177 4.66346
0.46836 -0.174789 4.66358
-0.482654 -0.131026 4.66622
-0.476598 -0.150158 4.66041
0.477934 -0.146228 4.66368
0.4827 -0.132807 4.66345
-0.49056 -0.0963337 4.66331
0.48893 -0.103526 4.66364
-0.496116 -0.0594798 4.66347
0.496086 -0.0592058 4.66393
-0.499162 -0.0224759 4.66335
0.499535 -0.0149212 4.66194
-0.499532 0.0219157 4.66373
0.499537 0.0150505 4.66522
-0.496259 0.0593738 4.66321
0.496212 0.0596178 4.66337
-0.490579 0.0960118 4.66338
0.48924 0.103571 4.66328
-0.483245 0.129001 4.65992
-0.477327 0.147895 4.66647
0.477776 0.147129 4.66363
0.482381 0.132304 4.66356
-0.465608 0.181574 4.66393
0.467947 0.174872 4.66361
-0.44736 0.222605 4.66329
0.450767 0.216232 4.66349
-0.426178 0.261492 4.66355
0.429739 0.255386 4.66348
-0.405509 0.292626 4.66364
-0.391796 0.310071 4.66365
0.391919 0.310241 4.66334
0.409454 0.286505 4.66355
-0.372721 0.333261 4.6635
-0.35222 0.354877 4.66409
0.354822 0.35171 4.66343
0.373171 0.333455 4.66375
-0.335945 0.369665 4.66346
-0.313679 0.389271 4.66345
0.307433 0.394266 4.66363
0.334752 0.371546 4.66356
-0.289503 0.40737 4.66328
-0.258356 0.427676 4.66361
0.239271 0.439082 4.66364
0.264726 0.424131 4.66325
0.290218 0.407894 4.66362
-0.21938 0.449215 4.66378
-0.178436 0.46698 4.66335
-0.150006 0.477201 4.66395
0.150074 0.476689 4.66333
0.185078 0.464463 4.66354
0.218963 0.449276 4.66362
-0.129063 0.482951 4.66348
-0.0995389 0.489874 4.66327
-0.0629086 0.495711 4.66348
-0.0186074 0.499933 4.66359
0.0216414 0.499216 4.66334
0.0574289 0.49642 4.66359
0.0995796 0.48979 4.66384
0.12876 0.482588 4.66353
-0.130126 -0.482992 4.70338
-0.0980944 -0.490141 4.70317
-0.0609327 -0.496174 4.70182
-0.0187665 -0.499211 4.69905
0.0185868 -0.499553 4.69899
0.0555814 -0.496391 4.69923
0.100083 -0.489654 4.70198
0.12833 -0.483205 4.70564
-0.219128 -0.449202 4.69916
-0.178061 -0.467044 4.69913
-0.150195 -0.476836 4.69867
0.150133 -0.476734 4.6993
0.18303 -0.465023 4.70162
0.219404 -0.448496 4.69909
-0.289536 -0.407254 4.69893
-0.260033 -0.42668 4.7043
0.239763 -0.43898 4.69976
0.264788 -0.423421 4.69865
0.289552 -0.40772 4.69854
-0.332979 -0.373231 4.7007
-0.311205 -0.390942 4.69612
0.306165 -0.395148 4.70295
0.332126 -0.373549 4.70392
-0.372687 -0.333068 4.69922
-0.35239 -0.35554 4.70589
0.353381 -0.352653 4.69667
0.373013 -0.333029 4.69925
-0.405614 -0.292489 4.69865
-0.391452 -0.310677 4.69874
0.391763 -0.310047 4.69921
0.410688 -0.285456 4.70337
-0.424521 -0.263655 4.70177
0.429732 -0.255201 4.69856
-0.447651 -0.222691 4.69922
0.451027 -0.216082 4.69877
-0.465613 -0.181521 4.69908
0.468751 -0.172549 4.7018
-0.482102 -0.13249 4.69895
-0.475752 -0.153984 4.69929
0.477371 -0.1461 4.69931
0.482354 -0.132591 4.69894
-0.490232 -0.096171 4.70414
0.488912 -0.103141 4.69909
-0.496255 -0.0594054 4.69945
0.496443 -0.0595588 4.69923
-0.499215 -0.0226171 4.7019
0.499923 -0.0151675 4.69923
-0.499355 0.0222224 4.69895
0.499661 0.0146236 4.70211
-0.496969 0.0590103 4.69881
0.496277 0.0593534 4.69903
-0.491061 0.0941763 4.70362
0.489392 0.101301 4.70201
-0.483169 0.12851 4.7025
-0.476856 0.149015 4.70153
0.478331 0.146883 4.69912
0.481729 0.131979 4.69912
-0.465787 0.181714 4.69904
0.468264 0.174992 4.69896
-0.447588 0.222866 4.70187
0.451814 0.21385 4.70192
-0.42607 0.262052 4.69876
0.427161 0.259365 4.70292
-0.405343 0.292632 4.70613
-0.392073 0.30976 4.70559
0.391571 0.310644 4.69871
0.408333 0.288692 4.70142
-0.37361 0.331556 4.70212
-0.352357 0.354517 4.69888
0.354044 0.353004 4.70163
0.373471 0.331791 4.70338
-0.33637 0.3702 4.69898
-0.31222 0.389991 4.70345
0.307066 0.394199 4.69867
0.334001 0.371879 4.70095
-0.289709 0.407842 4.69931
-0.258144 0.427956 4.69916
0.239006 0.439144 4.69866
0.266528 0.42258 4.70179
0.289653 0.407376 4.69874
-0.219278 0.449183 4.69901
-0.178435 0.467005 4.69896
-0.150624 0.476429 4.69912
0.149698 0.477178 4.69918
0.185378 0.464056 4.69904
0.217907 0.449647 4.70343
-0.12779 0.483075 4.70308
-0.0994808 0.490265 4.69949
-0.0628923 0.495931 4.69909
-0.0187655 0.49946 4.69901
0.0228898 0.499114 4.70345
0.0562028 0.496664 4.69897
0.0999779 0.489978 4.70217
0.128628 0.483137 4.69893
-0.127182 -0.483046 4.7374
-0.101273 -0.489687 4.73749
-0.0648894 -0.495883 4.73637
-0.0187678 -0.499538 4.73465
0.0188133 -0.499413 4.73428
0.0556294 -0.496565 4.73442
0.0997053 -0.489927 4.73637
0.128824 -0.482834 4.74212
-0.219138 -0.44937 4.73456
-0.178175 -0.467142 4.73498
-0.150257 -0.476711 4.7345
0.150407 -0.476959 4.73483
0.186829 -0.463498 4.7365
0.219333 -0.449271 4.73444
-0.289942 -0.407519 4.73462
-0.256294 -0.428986 4.73887
0.239101 -0.439319 4.73471
0.264486 -0.423857 4.73463
0.288901 -0.406959 4.73481
-0.335962 -0.370255 4.73475
-0.313373 -0.389494 4.73458
0.308541 -0.393044 4.73761
0.337207 -0.36901 4.73648
-0.37261 -0.33311 4.73455
-0.352384 -0.355093 4.74161
0.357519 -0.349344 4.73479
0.372639 -0.33311 4.73461
-0.40535 -0.292812 4.73491
-0.392249 -0.310863 4.73474
0.392026 -0.31062 4.73447
0.408446 -0.287734 4.73728
-0.426765 -0.26012 4.73633
0.42981 -0.255103 4.73469
-0.447717 -0.222495 4.73471
0.450784 -0.215887 4.73472
-0.465836 -0.181583 4.73445
0.467667 -0.176604 4.73665
-0.483212 -0.1285 4.73773
-0.477686 -0.148292 4.73161
0.477482 -0.146911 4.73469
0.481822 -0.132095 4.7348
-0.490237 -0.0962253 4.73831
0.488866 -0.103372 4.73466
-0.496346 -0.0590553 4.73482
0.496359 -0.0594472 4.73471
-0.499227 -0.0224356 4.73636
0.499566 -0.0165445 4.73833
-0.499325 0.0226842 4.73468
0.49948 0.0134651 4.73303
-0.49631 0.0595358 4.73451
0.496497 0.0593887 4.73518
-0.490249 0.0984757 4.73837
0.488525 0.105151 4.73653
-0.48374 0.124553 4.74183
-0.477896 0.146718 4.73509
0.477894 0.147257 4.73483
0.482423 0.132313 4.73475
-0.465563 0.181836 4.73475
0.468275 0.17482 4.73471
-0.447566 0.222512 4.73629
0.449893 0.217867 4.73665
-0.425776 0.261557 4.73445
0.431181 0.253575 4.73865
-0.405456 0.292832 4.74123
-0.392611 0.310518 4.74151
0.391788 0.310477 4.73466
0.409573 0.28656 4.73476
-0.371098 0.334602 4.73659
-0.352768 0.354935 4.73449
0.353353 0.353526 4.73171
0.371605 0.334259 4.73751
-0.336065 0.369968 4.73434
-0.314231 0.38869 4.73766
0.307633 0.394321 4.73494
0.332218 0.373479 4.73928
-0.289806 0.407703 4.73456
-0.258338 0.427887 4.73447
0.238719 0.438801 4.73526
0.26335 0.424641 4.73654
0.290021 0.407681 4.73456
-0.219013 0.448993 4.73456
-0.178034 0.467185 4.73478
-0.150518 0.476913 4.73455
0.15035 0.476923 4.73467
0.185492 0.464141 4.73461
0.220588 0.448532 4.73755
-0.130183 0.482969 4.73767
-0.0997342 0.489822 4.7346
-0.0629452 0.496061 4.73443
-0.0187305 0.499454 4.73442
0.0184469 0.499821 4.7344
0.0575468 0.496475 4.73633
0.0998072 0.489635 4.73643
0.128603 0.48291 4.73386
-0.128898 -0.482745 4.77731
-0.0999245 -0.490493 4.77775
-0.0631561 -0.496145 4.77731
-0.018573 -0.499117 4.77718
0.0189313 -0.500036 4.77733
0.0558106 -0.496876 4.77707
0.0998791 -0.489847 4.77763
0.128552 -0.483273 4.77756
-0.219045 -0.449276 4.77723
-0.178156 -0.46685 4.77747
-0.149975 -0.477217 4.77697
0.149892 -0.477056 4.77703
0.185251 -0.464383 4.77727
0.219426 -0.449373 4.77734
-0.289436 -0.40724 4.7769
-0.258325 -0.427661 4.77754
0.238888 -0.439232 4.76272
0.260221 -0.42684 4.77824
0.28961 -0.407694 4.77808
-0.335951 -0.370271 4.77741
-0.313349 -0.389694 4.77742
0.307721 -0.394167 4.77715
0.334537 -0.371483 4.77703
-0.372578 -0.333003 4.77738
-0.352455 -0.354569 4.77755
0.355371 -0.351952 4.7769
0.372828 -0.332957 4.77742
-0.405565 -0.292419 4.77707
-0.392059 -0.310038 4.77692
0.391755 -0.31023 4.77689
0.409382 -0.286371 4.77723
-0.425906 -0.261619 4.77711
0.429595 -0.255122 4.77718
-0.447505 -0.222747 4.77727
0.450814 -0.216077 4.77719
-0.465518 -0.181691 4.77722
0.46826 -0.174856 4.77744
-0.482962 -0.129231 4.7774
-0.476968 -0.148017 4.77714
0.478292 -0.146878 4.77756
0.482436 -0.133137 4.77695
-0.49065 -0.0960475 4.77742
0.488532 -0.103584 4.7774
-0.496247 -0.0596019 4.77707
0.496329 -0.0595862 4.77745
-0.499307 -0.0219083 4.77723
0.499753 -0.0124791 4.77592
-0.499358 0.0222543 4.77707
0.499546 0.0191049 4.77927
-0.496634 0.0591958 4.77705
0.496483 0.0593626 4.77723
-0.490567 0.0959141 4.77735
0.488637 0.103368 4.77722
-0.483249 0.129106 4.78055
-0.476978 0.147771 4.77432
0.478061 0.146994 4.77676
0.482568 0.132003 4.77749
-0.465929 0.181404 4.77732
0.46832 0.174873 4.7776
-0.447424 0.222464 4.77733
0.45104 0.215871 4.77736
-0.426061 0.261428 4.77741
0.427933 0.257651 4.77578
-0.405322 0.292933 4.77734
-0.391663 0.310225 4.77685
0.391988 0.31071 4.7774
0.40901 0.287753 4.77975
-0.372731 0.333054 4.77748
-0.352324 0.354654 4.77755
0.354582 0.352254 4.77366
0.372876 0.333168 4.77705
-0.33596 0.370486 4.77719
-0.313574 0.389441 4.77746
0.307903 0.39401 4.77752
0.3347 0.371338 4.77909
-0.289457 0.407459 4.7773
-0.258566 0.428046 4.77697
0.239035 0.43892 4.77715
0.264891 0.424067 4.77716
0.289688 0.407664 4.77748
-0.219414 0.449191 4.77706
-0.177918 0.467044 4.77724
-0.150521 0.477333 4.77719
0.150278 0.476909 4.77717
0.185259 0.464404 4.77701
0.219459 0.449233 4.77689
-0.12887 0.482947 4.77705
-0.099568 0.490086 4.77738
-0.0634981 0.495952 4.77747
-0.0186734 0.499332 4.77731
0.0185302 0.499589 4.77717
0.0557779 0.49667 4.77713
0.0997659 0.489877 4.77698
0.128931 0.483056 4.77719
-0.12876 -0.483226 4.81994
-0.099593 -0.489736 4.81992
-0.0626971 -0.495884 4.81994
-0.0187339 -0.499439 4.81975
0.0185436 -0.499424 4.81985
0.0556993 -0.496683 4.81992
0.0997148 -0.489645 4.81957
0.129114 -0.483481 4.81995
-0.219126 -0.449454 4.81951
-0.178146 -0.467034 4.82001
-0.150529 -0.476786 4.8195
0.150047 -0.476952 4.81972
0.185387 -0.464246 4.81994
0.219669 -0.449686 4.81953
-0.289555 -0.407593 4.81941
-0.258433 -0.427544 4.81978
0.239331 -0.439049 4.81956
0.264863 -0.423734 4.81973
0.289485 -0.407174 4.82002
-0.335918 -0.370197 4.82003
-0.313803 -0.389282 4.82041
0.307511 -0.394152 4.81983
0.33283 -0.372837 4.81945
-0.372771 -0.333233 4.81977
-0.352305 -0.35477 4.82027
0.353542 -0.353961 4.82
0.372918 -0.333353 4.82006
-0.40517 -0.292275 4.82004
-0.392044 -0.3104 4.82
0.39208 -0.31044 4.82
0.409556 -0.28658 4.81978
-0.425853 -0.261594 4.82016
0.429443 -0.254823 4.81979
-0.447513 -0.222739 4.82021
0.450806 -0.215914 4.81972
-0.465417 -0.181883 4.82007
0.468402 -0.175081 4.81992
-0.482531 -0.13083 4.82003
-0.476775 -0.151017 4.82011
0.478205 -0.146732 4.82013
0.482313 -0.13228 4.82009
-0.490464 -0.0960498 4.82006
0.489521 -0.103391 4.81996
-0.496311 -0.0593072 4.81995
0.496081 -0.0596641 4.81994
-0.499326 -0.022452 4.81996
0.499598 -0.0168541 4.81801
-0.499244 0.022136 4.81967
0.499746 0.0135892 4.82117
-0.495849 0.0594786 4.81975
0.496164 0.0591389 4.82008
-0.490561 0.0961373 4.81984
0.488946 0.103187 4.81963
-0.482426 0.132332 4.82008
-0.475755 0.153732 4.8201
0.477399 0.146282 4.81971
0.482295 0.132578 4.81995
-0.465579 0.181975 4.8199
0.468016 0.174978 4.81996
-0.447724 0.222225 4.8196
0.450659 0.215915 4.82015
-0.42573 0.261572 4.82009
0.429878 0.255262 4.81961
-0.40505 0.29284 4.81979
-0.392371 0.310153 4.82002
0.391609 0.310839 4.81995
0.409707 0.286843 4.8201
-0.372468 0.332817 4.8198
-0.352068 0.355211 4.81982
0.354765 0.352156 4.82038
0.373066 0.333478 4.81955
-0.33608 0.369792 4.81964
-0.313553 0.389994 4.8199
0.307411 0.393885 4.81998
0.334771 0.371372 4.81972
-0.290184 0.407553 4.82004
-0.258725 0.427906 4.81982
0.23944 0.439229 4.81912
0.264793 0.424079 4.8202
0.289614 0.407432 4.81961
-0.219379 0.449213 4.82004
-0.178315 0.467159 4.81963
-0.150362 0.476393 4.81983
0.150096 0.476798 4.81957
0.185262 0.464019 4.82002
0.219294 0.449158 4.81976
-0.129053 0.482843 4.81974
-0.0997609 0.489924 4.81975
-0.0629578 0.495937 4.81981
-0.0188431 0.499655 4.81986
0.0184788 0.4996 4.81984
0.0558309 0.496858 4.81992
0.0998133 0.489575 4.81993
0.129209 0.483052 4.82001
-0.128884 -0.482936 4.86248
-0.0998434 -0.48978 4.86243
-0.0631288 -0.49591 4.8624
-0.0183019 -0.499621 4.86254
0.021624 -0.499306 4.86298
0.0578376 -0.496419 4.86305
0.0999778 -0.490118 4.86281
0.129112 -0.483113 4.8629
-0.219331 -0.449266 4.86238
-0.178379 -0.466896 4.86262
-0.150249 -0.477015 4.86222
0.150262 -0.476426 4.86236
0.185405 -0.464565 4.86251
0.219224 -0.449519 4.86263
-0.289565 -0.407327 4.86258
-0.258399 -0.427625 4.86254
0.239512 -0.439294 4.8623
0.264695 -0.42413 4.86263
0.289416 -0.407564 4.86281
-0.33375 -0.372176 4.86239
-0.312012 -0.390553 4.86266
0.307149 -0.394361 4.86256
0.334643 -0.371629 4.86258
-0.372384 -0.333138 4.8626
-0.351761 -0.354811 4.86248
0.355481 -0.351975 4.86278
0.37256 -0.333098 4.86262
-0.40509 -0.29265 4.8623
-0.39204 -0.311239 4.86206
0.391677 -0.31034 4.86259
0.40879 -0.287706 4.85977
-0.426018 -0.261429 4.86248
0.428145 -0.257823 4.86388
-0.447706 -0.222731 4.86276
0.450878 -0.216079 4.86278
-0.46568 -0.181786 4.86234
0.468098 -0.174868 4.86261
-0.482247 -0.132523 4.86238
-0.476146 -0.153771 4.86308
0.477968 -0.147032 4.86242
0.482108 -0.132615 4.86248
-0.490705 -0.096015 4.8628
0.48907 -0.103424 4.86259
-0.496226 -0.0591682 4.86259
0.496016 -0.0595388 4.86233
-0.499417 -0.0223819 4.86251
0.499525 -0.0152288 4.86254
-0.499113 0.0219417 4.86228
0.49966 0.0147993 4.86221
-0.496574 0.0594505 4.86244
0.496141 0.0595397 4.86282
-0.490583 0.096272 4.86241
0.489054 0.103199 4.86247
-0.48283 0.130866 4.85972
-0.477014 0.150209 4.86615
0.478004 0.146769 4.86297
0.482551 0.13313 4.86239
-0.46576 0.181665 4.86258
0.468238 0.174796 4.86277
-0.447824 0.222753 4.86229
0.450896 0.215901 4.86232
-0.42594 0.261723 4.86259
0.429419 0.255339 4.86257
-0.405237 0.292488 4.86258
-0.391714 0.310898 4.86233
0.391974 0.310364 4.86225
0.40961 0.286545 4.86251
-0.372495 0.333125 4.86251
-0.352423 0.35542 4.86267
0.353518 0.353703 4.86276
0.372685 0.333375 4.86259
-0.336082 0.370325 4.86276
-0.313189 0.389379 4.86244
0.307412 0.394555 4.86237
0.333196 0.373465 4.8628
-0.289746 0.407385 4.86221
-0.258154 0.428151 4.86257
0.239014 0.438588 4.86956
0.262314 0.425417 4.86135
0.289864 0.407248 4.86238
-0.219501 0.448837 4.86266
-0.178266 0.466989 4.86253
-0.150315 0.477113 4.86279
0.149925 0.476998 4.86222
0.185265 0.464336 4.86278
0.219446 0.449201 4.86225
-0.128804 0.483229 4.86257
-0.0999732 0.490058 4.86242
-0.0632141 0.495752 4.86249
-0.0185729 0.499745 4.86254
0.0214843 0.499233 4.86262
0.0573083 0.496805 4.86246
0.0998996 0.489842 4.86266
0.128719 0.482943 4.86225
-0.128636 -0.483028 4.90525
-0.100185 -0.48996 4.90548
-0.0634684 -0.495829 4.90519
-0.0183498 -0.499592 4.90529
0.0184305 -0.499073 4.89816
0.0559994 -0.49675 4.9053
0.0994184 -0.490098 4.90536
0.132213 -0.482442 4.90107
-0.217951 -0.450087 4.90329
-0.178515 -0.466968 4.90339
-0.150673 -0.476606 4.90475
0.150196 -0.47679 4.90514
0.185337 -0.4645 4.90519
0.219256 -0.449717 4.90524
-0.289963 -0.407684 4.90503
-0.258492 -0.427675 4.90362
0.239434 -0.439227 4.90538
0.264992 -0.423771 4.90541
0.289829 -0.40761 4.905
-0.333708 -0.372269 4.90304
-0.312369 -0.390485 4.90819
0.307754 -0.39407 4.90512
0.336185 -0.370423 4.90334
-0.372441 -0.333154 4.90328
-0.352242 -0.354919 4.90512
0.35449 -0.352381 4.90499
0.372983 -0.333394 4.90508
-0.405589 -0.292898 4.90523
-0.392361 -0.310643 4.9056
0.391522 -0.3107 4.90514
0.408532 -0.288276 4.90824
-0.425171 -0.262997 4.90333
0.428119 -0.257922 4.90383
-0.44746 -0.223049 4.90524
0.450817 -0.215971 4.905
-0.464872 -0.183811 4.90324
0.4674 -0.176664 4.90503
-0.48232 -0.133939 4.90253
-0.475795 -0.153804 4.90578
0.477067 -0.149575 4.9017
0.481881 -0.132669 4.90499
-0.490538 -0.0962889 4.90494
0.489403 -0.101454 4.90333
-0.496214 -0.0594204 4.90523
0.49618 -0.059475 4.90512
-0.499347 -0.0221645 4.90517
0.499617 -0.0149683 4.90507
-0.499503 0.0226284 4.90326
0.499579 0.0150255 4.90339
-0.49672 0.0593515 4.89793
0.496214 0.059615 4.9036
-0.490445 0.0961604 4.90533
0.488304 0.105405 4.90127
-0.48378 0.125363 4.90532
-0.478049 0.146414 4.9051
0.477602 0.146547 4.90529
0.482272 0.132372 4.90483
-0.465782 0.182015 4.9033
0.468475 0.175015 4.90331
-0.447811 0.222451 4.90531
0.450734 0.21594 4.90531
-0.426824 0.26008 4.90382
0.429769 0.255451 4.90503
-0.405302 0.29242 4.90506
-0.391927 0.310296 4.9047
0.39172 0.31048 4.90499
0.40887 0.287813 4.90229
-0.37265 0.33321 4.9053
-0.352267 0.354673 4.90549
0.353401 0.353742 4.90201
0.372712 0.333527 4.90533
-0.333652 0.37226 4.90516
-0.312961 0.389109 4.90145
0.307336 0.393992 4.905
0.332961 0.373034 4.90701
-0.288691 0.408777 4.90283
-0.258436 0.427986 4.90517
0.238649 0.439101 4.90501
0.266425 0.422782 4.90322
0.289338 0.407567 4.90473
-0.21771 0.449826 4.90346
-0.178325 0.466878 4.90521
-0.150063 0.476665 4.90532
0.150384 0.476898 4.90534
0.185429 0.464493 4.90527
0.219068 0.449306 4.90512
-0.128806 0.483433 4.90534
-0.0998514 0.490074 4.90535
-0.0629261 0.495898 4.90523
-0.0166431 0.499798 4.90102
0.0173712 0.499942 4.90246
0.0558916 0.496821 4.90521
0.101638 0.489186 4.90357
0.129079 0.483058 4.90461
-0.128724 -0.482819 4.94014
-0.0993495 -0.48946 4.94054
-0.0629086 -0.495465 4.94093
-0.0183459 -0.499677 4.94077
0.0184808 -0.499453 4.93367
0.0556907 -0.496589 4.94101
0.0997714 -0.490178 4.94078
0.129008 -0.483985 4.94066
-0.221106 -0.448191 4.93759
-0.178306 -0.467015 4.93796
-0.150362 -0.476508 4.94018
0.151361 -0.476256 4.9367
0.185255 -0.464223 4.94088
0.219506 -0.449102 4.94096
-0.289917 -0.407456 4.94067
-0.258624 -0.427883 4.93762
0.238633 -0.438285 4.93387
0.261459 -0.426412 4.94192
0.288962 -0.407439 4.941
-0.336075 -0.370444 4.94041
-0.313421 -0.389401 4.94127
0.307771 -0.394258 4.94069
0.334185 -0.371643 4.93767
-0.372616 -0.333492 4.938
-0.352133 -0.355296 4.94082
0.357747 -0.349455 4.94019
0.372525 -0.333129 4.94092
-0.405302 -0.29253 4.94053
-0.391839 -0.310303 4.94083
0.392025 -0.309944 4.9404
0.409434 -0.286622 4.94048
-0.426828 -0.259946 4.9381
0.42983 -0.255091 4.94068
-0.447532 -0.222588 4.94074
0.450724 -0.216115 4.94043
-0.466231 -0.179836 4.93799
0.468204 -0.174751 4.9376
-0.483321 -0.128922 4.93405
-0.477309 -0.148874 4.94305
0.477967 -0.146633 4.94035
0.482023 -0.13241 4.9405
-0.490778 -0.0961067 4.94075
0.488664 -0.10532 4.93795
-0.496849 -0.0593941 4.94075
0.495958 -0.0595407 4.94057
-0.499589 -0.0220543 4.94058
0.499472 -0.0224866 4.94094
-0.499351 0.0224551 4.93796
0.499496 0.0115755 4.93856
-0.49625 0.0593371 4.93417
0.496386 0.059285 4.93769
-0.490606 0.0963073 4.94075
0.489659 0.101488 4.93576
-0.482053 0.132283 4.94073
-0.475304 0.15413 4.94072
0.477274 0.146819 4.94105
0.481828 0.132822 4.94124
-0.465624 0.181798 4.93804
0.468302 0.174761 4.93788
-0.447841 0.222983 4.9411
0.450968 0.21562 4.94079
-0.424561 0.263619 4.93761
0.427578 0.259026 4.93787
-0.40575 0.292144 4.94127
-0.391815 0.310584 4.94091
0.392291 0.310565 4.94093
0.409132 0.286517 4.9412
-0.373159 0.33321 4.94058
-0.352319 0.355072 4.94054
0.351951 0.354443 4.94078
0.37295 0.332993 4.94088
-0.336157 0.370685 4.94141
-0.312372 0.390353 4.93681
0.307529 0.394022 4.94088
0.330657 0.375137 4.94092
-0.290707 0.406754 4.93672
-0.258159 0.428005 4.9406
0.239296 0.439244 4.94114
0.262935 0.424975 4.93795
0.289738 0.408321 4.94045
-0.221346 0.448165 4.93809
-0.178383 0.467018 4.94075
-0.149855 0.476805 4.94098
0.152707 0.475582 4.93776
0.18543 0.464264 4.94067
0.218968 0.449558 4.9409
-0.128632 0.483177 4.94094
-0.100099 0.489891 4.94065
-0.0634131 0.495583 4.94096
-0.0207973 0.499452 4.93562
0.0197243 0.499558 4.93674
0.0558471 0.496779 4.9408
0.0981813 0.49005 4.93809
0.133722 0.48247 4.94303
-0.128623 -0.483077 4.97626
-0.099508 -0.489903 4.97654
-0.0628162 -0.496135 4.97668
-0.0186443 -0.499705 4.97614
0.0190268 -0.499342 4.97587
0.0557155 -0.496961 4.97618
0.0998163 -0.489706 4.97645
0.128673 -0.482976 4.97629
-0.218969 -0.449466 4.97644
-0.178145 -0.467093 4.97628
-0.149984 -0.476904 4.97655
0.150186 -0.477031 4.97614
0.185171 -0.464076 4.97632
0.219298 -0.449265 4.97621
-0.289988 -0.407676 4.97604
-0.258573 -0.427717 4.97633
0.238933 -0.43966 4.97635
0.264749 -0.423912 4.97616
0.289948 -0.407609 4.97603
-0.335798 -0.370303 4.9768
-0.313345 -0.389368 4.97623
0.307325 -0.394018 4.97626
0.335907 -0.37036 4.97593
-0.372748 -0.33322 4.9762
-0.352159 -0.35477 4.97602
0.357518 -0.34933 4.97615
0.372543 -0.333285 4.97619
-0.404857 -0.292837 4.97633
-0.391336 -0.310632 4.9762
0.391931 -0.310606 4.97614
0.409505 -0.286432 4.97622
-0.425906 -0.261861 4.97644
0.429642 -0.255347 4.97651
-0.447693 -0.222435 4.97633
0.450709 -0.216034 4.97636
-0.465776 -0.181682 4.97608
0.467982 -0.174893 4.97604
-0.482945 -0.128866 4.97648
-0.477267 -0.148028 4.97633
0.477532 -0.146047 4.97612
0.481532 -0.132161 4.97638
-0.490488 -0.0960551 4.97596
0.489011 -0.103397 4.97622
-0.496395 -0.059306 4.97653
0.496334 -0.0593918 4.97632
-0.49938 -0.0225322 4.97612
0.499533 -0.0123197 4.97626
-0.499245 0.022295 4.9763
0.499423 0.0192468 4.97622
-0.496426 0.0596315 4.97634
0.496408 0.0594996 4.97629
-0.490434 0.0962565 4.97584
0.488656 0.103389 4.97626
-0.482211 0.132611 4.97575
-0.476057 0.154357 4.9766
0.47744 0.147135 4.97635
0.482428 0.131646 4.97653
-0.46554 0.181951 4.97653
0.468108 0.174608 4.97628
-0.447378 0.22262 4.97605
0.450929 0.215843 4.97643
-0.425989 0.261588 4.97613
0.429654 0.255139 4.97654
-0.405497 0.292861 4.97626
-0.392016 0.310656 4.97611
0.392234 0.31036 4.97588
0.409841 0.286729 4.97627
-0.372208 0.333055 4.97644
-0.352624 0.354872 4.97604
0.354112 0.35261 4.97618
0.372652 0.333229 4.97637
-0.336158 0.369909 4.97613
-0.313388 0.389533 4.97642
0.307615 0.394019 4.97602
0.334811 0.371419 4.97579
-0.28959 0.407321 4.9763
-0.258183 0.427914 4.97653
0.23911 0.438985 4.97645
0.264711 0.424095 4.9762
0.289949 0.407482 4.97618
-0.219348 0.449184 4.97602
-0.178688 0.467086 4.97635
-0.146869 0.477552 4.97314
0.150277 0.476498 4.97592
0.185183 0.464359 4.97623
0.218994 0.448746 4.97645
-0.127354 0.483125 4.97915
-0.0999682 0.489745 4.9763
-0.0634854 0.495869 4.9763
-0.0187259 0.499879 4.97642
0.0187276 0.499274 4.9766
0.0555858 0.496808 4.97642
0.100062 0.489891 4.97642
0.128938 0.482976 4.97637
-0.128872 -0.482809 5.01918
-0.10035 -0.489898 5.01894
-0.0628866 -0.495919 5.0188
-0.0185418 -0.499442 5.01891
0.0187258 -0.499448 5.01898
0.055697 -0.496655 5.01889
0.0997006 -0.489598 5.01889
0.129058 -0.482998 5.01892
-0.219119 -0.449122 5.01884
-0.178513 -0.467183 5.01914
-0.149777 -0.476601 5.01879
0.149798 -0.476499 5.01889
0.183496 -0.464853 5.01745
0.216899 -0.450389 5.02126
-0.289679 -0.406971 5.01877
-0.258232 -0.427608 5.01882
0.239141 -0.439314 5.01883
0.26244 -0.425577 5.01899
0.289388 -0.407387 5.01861
-0.336344 -0.370018 5.0191
-0.313463 -0.389544 5.01888
0.307972 -0.394407 5.01898
0.334233 -0.371702 5.02106
-0.372935 -0.333398 5.01897
-0.352149 -0.354541 5.01893
0.354773 -0.351672 5.0152
0.372378 -0.33304 5.01866
-0.405207 -0.292573 5.01854
-0.391862 -0.310351 5.01884
0.391815 -0.310584 5.01901
0.408821 -0.287989 5.02193
-0.426228 -0.261605 5.01931
0.427863 -0.257557 5.01778
-0.447662 -0.222578 5.01894
0.450936 -0.215865 5.01907
-0.465454 -0.181681 5.01886
0.468429 -0.174823 5.01884
-0.482495 -0.130985 5.02192
-0.47645 -0.150281 5.01572
0.478231 -0.146842 5.019
0.481979 -0.13244 5.01916
-0.490368 -0.0960025 5.0191
0.489136 -0.103442 5.01882
-0.496218 -0.0595821 5.01889
0.496203 -0.0595547 5.01904
-0.499339 -0.0219473 5.019
0.499843 -0.0122998 5.01759
-0.499384 0.0225423 5.01883
0.499149 0.0191964 5.02111
-0.496484 0.059239 5.0191
0.496465 0.0593177 5.01891
-0.490324 0.096019 5.01899
0.488938 0.103602 5.01895
-0.484557 0.125359 5.01947
-0.4777 0.146438 5.019
0.476444 0.151805 5.02182
0.482557 0.13246 5.01853
-0.465589 0.181717 5.01896
0.466639 0.178654 5.01703
-0.44753 0.222901 5.01926
0.450943 0.216085 5.019
-0.425793 0.261954 5.01904
0.429277 0.255272 5.01897
-0.40523 0.29245 5.01907
-0.391996 0.310288 5.01883
0.392066 0.310476 5.01879
0.409754 0.286405 5.01899
-0.372545 0.33339 5.01876
-0.352715 0.354913 5.01895
0.357434 0.349404 5.01841
0.372825 0.333557 5.01876
-0.336048 0.370027 5.019
-0.313018 0.389557 5.01891
0.307181 0.394172 5.01903
0.336059 0.370297 5.01882
-0.289513 0.407192 5.01912
-0.258208 0.42812 5.01912
0.23934 0.438515 5.01847
0.264865 0.424072 5.01928
0.289577 0.407972 5.01885
-0.219069 0.44914 5.01899
-0.178279 0.466772 5.01906
-0.150252 0.476782 5.01854
0.150385 0.476526 5.01918
0.183798 0.46509 5.01872
0.219307 0.449341 5.01873
-0.12882 0.482764 5.01899
-0.0999885 0.489584 5.01861
-0.0627951 0.495801 5.01887
-0.0184222 0.499171 5.01898
0.0217027 0.499417 5.02077
0.0575848 0.496531 5.01743
0.100182 0.489673 5.01904
0.128291 0.483212 5.01897
-0.128874 -0.483113 5.06169
-0.0999435 -0.489753 5.06173
-0.063206 -0.495976 5.06164
-0.0184067 -0.499558 5.06166
0.0185408 -0.499906 5.06148
0.0559125 -0.496327 5.06161
0.100076 -0.489709 5.06152
0.128718 -0.482815 5.06158
-0.219457 -0.449146 5.06118
-0.178413 -0.466978 5.06174
-0.150147 -0.476456 5.06175
0.15038 -0.476713 5.06073
0.185067 -0.464406 5.0618
0.2193 -0.44928 5.06154
-0.289612 -0.407667 5.0615
-0.258597 -0.427876 5.06151
0.23945 -0.439198 5.062
0.264923 -0.423957 5.06163
0.289582 -0.407418 5.061
-0.336111 -0.36995 5.06144
-0.313519 -0.389496 5.06129
0.307438 -0.393721 5.06165
0.334587 -0.371363 5.06001
-0.372392 -0.333073 5.06154
-0.35227 -0.354976 5.06149
0.355197 -0.351993 5.06527
0.372603 -0.33308 5.06148
-0.405548 -0.292674 5.06172
-0.391438 -0.310245 5.06189
0.392158 -0.310623 5.06171
0.409176 -0.286931 5.06185
-0.425836 -0.261662 5.06143
0.430005 -0.254951 5.06169
-0.447316 -0.22258 5.06172
0.450826 -0.216054 5.06147
-0.465254 -0.181963 5.06133
0.467979 -0.174882 5.06166
-0.483199 -0.12912 5.06515
-0.477382 -0.148071 5.05858
0.477896 -0.146828 5.06174
0.481807 -0.132451 5.0619
-0.490429 -0.0961549 5.06151
0.488942 -0.103489 5.06174
-0.496359 -0.0591702 5.06164
0.496007 -0.0593269 5.06153
-0.499332 -0.0219276 5.0617
0.500026 -0.013724 5.06166
-0.499455 0.0226972 5.06143
0.499537 0.0166763 5.06181
-0.496128 0.0596046 5.06159
0.496328 0.0594025 5.06153
-0.490404 0.096317 5.06154
0.489 0.103056 5.06158
-0.482517 0.130913 5.05883
-0.476691 0.150186 5.06536
0.478118 0.146733 5.06123
0.481785 0.132771 5.06184
-0.465809 0.181793 5.06139
0.468413 0.174805 5.06151
-0.447687 0.222429 5.06162
0.450706 0.215755 5.06154
-0.425972 0.261561 5.06172
0.429822 0.255193 5.06175
-0.405217 0.293027 5.06182
-0.392288 0.311099 5.06128
0.391764 0.310452 5.06127
0.409574 0.286651 5.06167
-0.372792 0.333334 5.06159
-0.351822 0.35508 5.06141
0.353599 0.353765 5.05841
0.372931 0.333415 5.06136
-0.335704 0.3706 5.06155
-0.313596 0.389833 5.06118
0.307649 0.39413 5.06168
0.333034 0.372793 5.06337
-0.289699 0.407609 5.06173
-0.258331 0.42799 5.06193
0.238985 0.439297 5.06132
0.264825 0.424114 5.06152
0.28978 0.408218 5.06188
-0.219134 0.449186 5.06131
-0.178059 0.46683 5.06192
-0.150116 0.476861 5.06204
0.150169 0.47685 5.0617
0.185055 0.464033 5.0614
0.219347 0.449484 5.06163
-0.129061 0.482889 5.06127
-0.100092 0.490148 5.06157
-0.0634044 0.496121 5.06163
-0.0185614 0.499324 5.06178
0.0181618 0.499336 5.06128
0.0559126 0.496788 5.06167
0.0997407 0.489775 5.06137
0.128944 0.483466 5.06161
-0.128848 -0.482845 5.10414
-0.0996758 -0.489447 5.10406
-0.063141 -0.495945 5.10409
-0.018963 -0.499229 5.10434
0.0187668 -0.499711 5.104
0.0556486 -0.496554 5.10437
0.0999885 -0.489393 5.10448
0.128769 -0.482885 5.10445
-0.219421 -0.449275 5.10399
-0.178392 -0.466833 5.10433
-0.150251 -0.476959 5.10473
0.150095 -0.476722 5.10391
0.183243 -0.464719 5.10312
0.216504 -0.450564 5.10643
-0.289718 -0.407384 5.10423
-0.258627 -0.427897 5.10425
0.239536 -0.438745 5.10482
0.262144 -0.425533 5.10428
0.289803 -0.407356 5.10375
-0.336267 -0.370183 5.1039
-0.313186 -0.389633 5.10413
0.307689 -0.394448 5.10449
0.332718 -0.372937 5.10224
-0.372473 -0.333142 5.10421
-0.352309 -0.354489 5.10401
0.353341 -0.353811 5.10744
0.372371 -0.333432 5.10442
-0.405791 -0.292441 5.10428
-0.391876 -0.310374 5.1045
0.392116 -0.310296 5.1045
0.408933 -0.287847 5.10442
-0.425676 -0.261752 5.10429
0.428259 -0.257618 5.10409
-0.447476 -0.222552 5.1044
0.450991 -0.215842 5.10432
-0.465537 -0.181542 5.10428
0.468079 -0.174922 5.10436
-0.482696 -0.131243 5.1017
-0.476796 -0.149929 5.10801
0.478455 -0.146309 5.10418
0.481729 -0.132402 5.10465
-0.490492 -0.09651 5.10446
0.48882 -0.103297 5.10441
-0.496237 -0.0594958 5.10392
0.49614 -0.0594204 5.10413
-0.499133 -0.0225892 5.10424
0.499559 -0.0168061 5.10437
-0.499377 0.0224079 5.10426
0.499667 0.0134195 5.10394
-0.496257 0.0594646 5.10427
0.496154 0.0594222 5.10401
-0.490713 0.0961643 5.10435
0.488992 0.103311 5.10413
-0.482855 0.130569 5.10411
-0.476634 0.150524 5.10445
0.477877 0.146963 5.10466
0.482641 0.132325 5.10452
-0.465737 0.181543 5.10412
0.468064 0.17476 5.10424
-0.447809 0.22272 5.1045
0.450681 0.216029 5.10423
-0.426091 0.261404 5.10392
0.429574 0.255068 5.10403
-0.405327 0.29236 5.10439
-0.391862 0.309944 5.10425
0.392117 0.310419 5.1042
0.409587 0.286728 5.10413
-0.37276 0.333184 5.10421
-0.352363 0.354722 5.10434
0.353308 0.35321 5.1015
0.372741 0.333445 5.10431
-0.336145 0.370127 5.10456
-0.313287 0.389765 5.10431
0.307701 0.394131 5.10474
0.332406 0.373054 5.10615
-0.289388 0.407629 5.10415
-0.258407 0.427742 5.10433
0.239061 0.438973 5.10432
0.264955 0.424091 5.1044
0.289365 0.407507 5.1043
-0.219292 0.44901 5.10396
-0.178186 0.46687 5.1041
-0.150697 0.476685 5.10465
0.150148 0.476908 5.10415
0.184995 0.464116 5.10428
0.219252 0.449122 5.10441
-0.128673 0.483004 5.10425
-0.0999922 0.490072 5.10402
-0.0630582 0.495726 5.10457
-0.0184339 0.499577 5.10438
0.0186756 0.499618 5.10455
0.0558318 0.496871 5.10408
0.099483 0.489674 5.10416
0.128625 0.482954 5.10441
-0.12882 -0.482876 5.13985
-0.0995772 -0.489638 5.13954
-0.0633717 -0.496076 5.13972
-0.0186064 -0.499545 5.1396
0.0184244 -0.499641 5.14
0.0555543 -0.496316 5.13992
0.0994295 -0.48978 5.13974
0.128185 -0.483467 5.13957
-0.219472 -0.449205 5.13994
-0.178172 -0.467241 5.13948
-0.150394 -0.476992 5.13952
0.150217 -0.476792 5.14001
0.185269 -0.464117 5.13984
0.219394 -0.449029 5.13977
-0.289555 -0.407623 5.14
-0.258503 -0.427324 5.13964
0.238853 -0.439581 5.13959
0.264807 -0.424186 5.13955
0.289462 -0.407123 5.13992
-0.332871 -0.372916 5.13876
-0.311581 -0.391491 5.14185
0.307427 -0.394339 5.13989
0.33066 -0.374753 5.14026
-0.372237 -0.332962 5.13964
-0.352073 -0.355012 5.14004
0.351886 -0.354865 5.13961
0.372393 -0.333333 5.13986
-0.405281 -0.292832 5.13957
-0.39273 -0.310836 5.14012
0.391636 -0.310192 5.1397
0.409485 -0.28673 5.13957
-0.425847 -0.262117 5.1398
0.429981 -0.254884 5.13994
-0.447233 -0.22241 5.13986
0.450807 -0.215991 5.13971
-0.465697 -0.181521 5.1396
0.467821 -0.177768 5.13839
-0.48293 -0.129832 5.13741
-0.477417 -0.148636 5.14223
0.476472 -0.150872 5.1414
0.482 -0.13224 5.13953
-0.490816 -0.0960643 5.13964
0.489144 -0.103025 5.1399
-0.496611 -0.0590404 5.13998
0.496378 -0.0593838 5.1398
-0.499533 -0.0224879 5.13987
0.499819 -0.0179613 5.13874
-0.499141 0.0224086 5.13982
0.499478 0.0130673 5.14068
-0.496358 0.0593074 5.13982
0.496025 0.0595619 5.13988
-0.490734 0.0960197 5.13984
0.488826 0.103655 5.13973
-0.482286 0.132017 5.13981
-0.475652 0.154092 5.13975
0.478026 0.146651 5.14013
0.481938 0.132573 5.13973
-0.465823 0.181929 5.13981
0.467965 0.174716 5.13951
-0.448877 0.220097 5.14134
-0.439823 0.236681 5.13237
0.450481 0.216248 5.13964
-0.426221 0.261875 5.14014
0.430045 0.255228 5.13999
-0.405822 0.293151 5.14002
-0.392231 0.310287 5.13994
0.391627 0.310415 5.13986
0.409645 0.286651 5.14012
-0.372956 0.33337 5.13982
-0.352171 0.355371 5.13988
0.353947 0.353423 5.13777
0.372689 0.333268 5.13979
-0.333171 0.373282 5.13851
-0.311668 0.391349 5.14223
0.307362 0.394498 5.14004
0.333768 0.372183 5.14086
-0.289379 0.407529 5.1397
-0.258268 0.428006 5.13977
0.238984 0.439289 5.1333
0.264639 0.42378 5.13978
0.289509 0.407711 5.13974
-0.219475 0.449492 5.13978
-0.178377 0.466674 5.1398
-0.150798 0.476818 5.13997
0.150353 0.476533 5.14011
0.185212 0.464631 5.13968
0.223338 0.447585 5.14118
-0.128903 0.482931 5.14007
-0.100078 0.490296 5.14001
-0.0634936 0.496047 5.1397
-0.0188088 0.499554 5.13979
0.0185012 0.499399 5.14026
0.0557543 0.496774 5.13945
0.102172 0.489497 5.14302
0.128193 0.48302 5.1393
-0.128654 -0.483051 5.17538
-0.0999831 -0.490125 5.17537
-0.0631302 -0.495607 5.17555
-0.0186945 -0.499554 5.17549
0.0184911 -0.499514 5.17513
0.0558905 -0.496684 5.17566
0.0998603 -0.489717 5.17516
0.128732 -0.483362 5.1754
-0.219486 -0.448911 5.17528
-0.178269 -0.466849 5.17516
-0.150215 -0.476576 5.175
0.150188 -0.47694 5.17523
0.185024 -0.464004 5.17528
0.219133 -0.449322 5.175
-0.289467 -0.407622 5.1753
-0.258446 -0.427936 5.17532
0.239134 -0.439167 5.17463
0.264578 -0.423969 5.17551
0.289634 -0.407166 5.17543
-0.335788 -0.370061 5.17551
-0.313454 -0.389522 5.17506
0.307415 -0.394393 5.17511
0.332934 -0.373091 5.17542
-0.37259 -0.333332 5.17526
-0.351942 -0.354736 5.17529
0.353321 -0.353419 5.17551
0.372795 -0.333325 5.17562
-0.405444 -0.29304 5.17517
-0.391793 -0.310751 5.17547
0.392053 -0.310681 5.17499
0.409951 -0.286587 5.17537
-0.426102 -0.261628 5.17557
0.42974 -0.255376 5.17532
-0.448252 -0.220977 5.17704
-0.439362 -0.235669 5.16132
0.450794 -0.216025 5.17516
-0.465555 -0.181985 5.17531
0.468337 -0.174839 5.17511
-0.482828 -0.128949 5.1795
-0.477213 -0.148132 5.17232
0.477645 -0.146962 5.17514
0.482037 -0.132613 5.17508
-0.490494 -0.0961821 5.1753
0.489165 -0.103543 5.17524
-0.49618 -0.0594069 5.17539
0.496184 -0.059162 5.17573
-0.499672 -0.0225388 5.17534
0.499471 -0.0123521 5.17532
-0.499512 0.0225025 5.17547
0.499606 0.0193784 5.17523
-0.496686 0.0587723 5.1754
0.496206 0.0594963 5.17512
-0.490585 0.0958723 5.17506
0.488882 0.103367 5.17531
-0.482424 0.130723 5.17805
-0.476824 0.150909 5.17178
0.478134 0.146619 5.17569
0.482359 0.13254 5.17543
-0.46559 0.181864 5.17523
0.468099 0.17496 5.17516
-0.447679 0.222631 5.17545
0.450898 0.215847 5.17562
-0.425638 0.261963 5.17549
0.428343 0.257761 5.17378
-0.405699 0.292554 5.17491
-0.392046 0.310206 5.17508
0.391888 0.310462 5.17536
0.409182 0.288298 5.17858
-0.37268 0.333345 5.17519
-0.351855 0.355031 5.17585
0.355219 0.352044 5.17858
0.372541 0.333459 5.17569
-0.333907 0.372094 5.17328
-0.312349 0.390922 5.17828
0.307383 0.39469 5.17535
0.334524 0.371138 5.1737
-0.289977 0.407587 5.17579
-0.258485 0.427535 5.17552
0.238554 0.438622 5.1754
0.264994 0.424093 5.1754
0.289601 0.407732 5.17506
-0.219435 0.448809 5.17527
-0.178373 0.466906 5.17521
-0.149855 0.47706 5.17506
0.150407 0.476925 5.17499
0.185457 0.463995 5.17555
0.219401 0.44944 5.1756
-0.1287 0.483309 5.17546
-0.0996955 0.48987 5.17555
-0.0630771 0.495638 5.1755
-0.0182552 0.499674 5.17532
0.0181477 0.499654 5.17556
0.055861 0.496694 5.17528
0.0978188 0.490409 5.17738
0.129389 0.483266 5.17549
-0.128666 -0.482891 5.21762
-0.0998913 -0.489752 5.21824
-0.0632855 -0.495846 5.21816
-0.0185435 -0.499729 5.21792
0.018694 -0.499774 5.21812
0.0557608 -0.496822 5.21781
0.0998737 -0.489645 5.21826
0.129144 -0.482472 5.21809
-0.219255 -0.449344 5.21793
-0.178293 -0.466992 5.21821
-0.150251 -0.477396 5.218
0.150185 -0.476658 5.21775
0.18543 -0.464453 5.21795
0.219505 -0.449497 5.21813
-0.289395 -0.407589 5.21795
-0.258445 -0.427992 5.21807
0.239513 -0.439169 5.21799
0.26474 -0.42404 5.21799
0.289813 -0.408082 5.21765
-0.336106 -0.370295 5.21815
-0.313116 -0.389336 5.21786
0.307683 -0.394174 5.21794
0.336136 -0.370155 5.21807
-0.372819 -0.333298 5.21813
-0.352065 -0.35495 5.21773
0.356882 -0.349758 5.21793
0.372596 -0.333218 5.21845
-0.405531 -0.292752 5.2181
-0.392269 -0.310856 5.21817
0.391616 -0.310423 5.21803
0.40948 -0.286958 5.21796
-0.425849 -0.261554 5.21809
0.429674 -0.255097 5.21791
-0.447292 -0.222565 5.21796
0.450855 -0.216031 5.2181
-0.465565 -0.181629 5.2181
0.468257 -0.17488 5.2178
-0.482599 -0.13116 5.2177
-0.476812 -0.150357 5.21772
0.478148 -0.146907 5.21795
0.482246 -0.132879 5.21755
-0.490515 -0.0962363 5.21778
0.489226 -0.10337 5.21778
-0.496425 -0.0594502 5.2181
0.496288 -0.0593886 5.21796
-0.499413 -0.0224885 5.21817
0.499567 -0.0149931 5.21956
-0.499123 0.0224306 5.2182
0.499561 0.0150056 5.21628
-0.496441 0.0597977 5.21806
0.496379 0.0594763 5.21797
-0.490871 0.0964499 5.21849
0.48936 0.102993 5.21778
-0.48282 0.131274 5.22118
-0.476195 0.150552 5.21451
0.478024 0.146671 5.2177
0.482528 0.132068 5.21788
-0.46571 0.181701 5.21819
0.468292 0.174981 5.21789
-0.447571 0.222729 5.21834
0.451063 0.215926 5.21806
-0.42564 0.261891 5.21796
0.427917 0.25782 5.21823
-0.40532 0.292583 5.21788
-0.391684 0.310364 5.21814
0.392102 0.310271 5.21785
0.408922 0.28778 5.21804
-0.372787 0.332858 5.21803
-0.351955 0.355115 5.21804
0.3546 0.352009 5.21809
0.372745 0.33349 5.21775
-0.336007 0.370038 5.21781
-0.313508 0.389877 5.21781
0.307852 0.394246 5.21797
0.334463 0.371804 5.21787
-0.289395 0.407412 5.21792
-0.258237 0.427611 5.21804
0.238884 0.438766 5.21738
0.264682 0.423945 5.21789
0.289274 0.407318 5.21769
-0.219268 0.449372 5.21805
-0.178116 0.466997 5.21791
-0.150122 0.477056 5.2177
0.149967 0.476225 5.21767
0.18356 0.464942 5.21627
0.216604 0.450666 5.22029
-0.128898 0.483051 5.21805
-0.0998208 0.489922 5.21777
-0.0629555 0.49588 5.21805
-0.0187758 0.49949 5.21779
0.0215829 0.499855 5.21605
0.0577719 0.496211 5.21997
0.0998464 0.489515 5.21781
0.12873 0.482812 5.21785
-0.128769 -0.482686 5.26075
-0.0999082 -0.490016 5.26048
-0.0628078 -0.495706 5.26076
-0.0187752 -0.499404 5.26101
0.0186244 -0.499415 5.26057
0.0557948 -0.496977 5.26083
0.100008 -0.489914 5.2605
0.128989 -0.483163 5.26058
-0.219185 -0.449156 5.26092
-0.178506 -0.46717 5.26069
-0.150205 -0.476931 5.2608
0.150383 -0.476692 5.26036
0.18544 -0.464283 5.26058
0.219445 -0.449263 5.26059
-0.289816 -0.407347 5.26099
-0.258673 -0.428053 5.26048
0.239198 -0.439048 5.26112
0.264868 -0.424008 5.26023
0.289617 -0.407389 5.26021
-0.335941 -0.370261 5.26068
-0.313341 -0.389811 5.26042
0.307484 -0.394336 5.26066
0.336123 -0.370242 5.26064
-0.372467 -0.333131 5.26076
-0.352541 -0.35542 5.26063
0.357856 -0.349151 5.26088
0.372851 -0.333611 5.26067
-0.405558 -0.292788 5.26035
-0.391921 -0.310312 5.2603
0.392318 -0.310609 5.2605
0.408849 -0.28782 5.26358
-0.426067 -0.261683 5.26034
0.428075 -0.257831 5.2592
-0.448413 -0.220953 5.26259
-0.439917 -0.236149 5.24702
0.450777 -0.215806 5.26057
-0.465661 -0.182083 5.26069
0.468117 -0.174597 5.26069
-0.483436 -0.128484 5.25674
-0.477114 -0.147836 5.26381
0.478357 -0.146641 5.26086
0.482347 -0.132364 5.26036
-0.490381 -0.0959939 5.26032
0.489155 -0.103356 5.26079
-0.496192 -0.0591197 5.26073
0.496218 -0.0592681 5.26056
-0.499363 -0.0224499 5.26081
0.499916 -0.0137231 5.26051
-0.49928 0.0221386 5.26071
0.499379 0.0168704 5.26035
-0.496537 0.0596038 5.26054
0.496603 0.0591723 5.26096
-0.490692 0.0962484 5.26011
0.488927 0.10339 5.2606
-0.482332 0.132409 5.26064
-0.476303 0.153714 5.26027
0.478089 0.146528 5.26116
0.481654 0.132794 5.26082
-0.465721 0.181667 5.2607
0.467946 0.174742 5.26064
-0.447593 0.222444 5.26056
0.450836 0.216016 5.26054
-0.426082 0.261554 5.26041
0.429728 0.255059 5.26106
-0.405581 0.292547 5.26089
-0.391947 0.310846 5.26026
0.391581 0.310402 5.26095
0.409407 0.286673 5.26039
-0.372513 0.333197 5.26062
-0.352571 0.355501 5.26094
0.354745 0.351359 5.26461
0.372866 0.333546 5.26074
-0.335823 0.370342 5.26047
-0.313789 0.389835 5.26098
0.307639 0.394327 5.26053
0.334816 0.371559 5.25887
-0.289628 0.407771 5.26051
-0.258372 0.427869 5.26074
0.238995 0.43908 5.26009
0.264791 0.423915 5.26051
0.289172 0.407457 5.26063
-0.219479 0.449259 5.26059
-0.178295 0.466945 5.26089
-0.149454 0.476666 5.26064
0.149751 0.476505 5.26109
0.185629 0.464407 5.26097
0.219047 0.449195 5.26039
-0.128769 0.483205 5.26086
-0.0994765 0.489807 5.26089
-0.0628811 0.496003 5.26061
-0.0187195 0.499583 5.26056
0.0186273 0.499919 5.26052
0.0557725 0.496673 5.2605
0.0997869 0.489496 5.26072
0.128736 0.483303 5.25998
-0.128818 -0.483147 5.30319
-0.0996495 -0.489715 5.30297
-0.0631265 -0.49587 5.30316
-0.0186303 -0.499519 5.30333
0.018175 -0.499791 5.30278
0.0556785 -0.497001 5.30313
0.0998987 -0.489811 5.30329
0.129005 -0.482833 5.30331
-0.218907 -0.449522 5.30332
-0.178353 -0.46687 5.30377
-0.150086 -0.477276 5.30352
0.150844 -0.476661 5.30319
0.185187 -0.464452 5.30328
0.219356 -0.449321 5.3032
-0.28967 -0.407776 5.30384
-0.258669 -0.427818 5.30338
0.239082 -0.439547 5.30334
0.264943 -0.424024 5.30348
0.289557 -0.4077 5.30316
-0.333404 -0.372429 5.30123
-0.312197 -0.390502 5.30644
0.307511 -0.394266 5.3031
0.33475 -0.37124 5.30151
-0.373011 -0.333491 5.30317
-0.352298 -0.354541 5.30365
0.355029 -0.351829 5.30754
0.372551 -0.333259 5.30337
-0.405444 -0.292718 5.30324
-0.391387 -0.310406 5.30341
0.391666 -0.31045 5.30349
0.409774 -0.286538 5.30327
-0.425958 -0.261467 5.30326
0.42979 -0.255499 5.30341
-0.447654 -0.222824 5.30336
0.450808 -0.215811 5.30325
-0.465553 -0.18184 5.30323
0.468107 -0.174572 5.30324
-0.482224 -0.131073 5.30323
-0.476984 -0.150236 5.30347
0.478395 -0.146081 5.30323
0.481997 -0.132874 5.30372
-0.490836 -0.0961601 5.30342
0.489072 -0.103329 5.30318
-0.496262 -0.0592839 5.30309
0.496367 -0.059546 5.30305
-0.499472 -0.0223646 5.30313
0.499843 -0.0150697 5.3017
-0.499141 0.02257 5.30304
0.499648 0.0151716 5.30493
-0.496831 0.0591166 5.30381
0.496199 0.0592425 5.30336
-0.490602 0.0961144 5.30329
0.488748 0.103405 5.30291
-0.482313 0.132479 5.30315
-0.475995 0.153836 5.30355
0.478669 0.146606 5.30364
0.482275 0.131855 5.30384
-0.465864 0.181569 5.30317
0.468369 0.174987 5.30317
-0.44759 0.222495 5.30317
0.450647 0.215989 5.30341
-0.426065 0.261654 5.30347
0.428186 0.257795 5.30177
-0.405229 0.292689 5.30333
-0.391773 0.311002 5.30319
0.391697 0.310906 5.30334
0.408955 0.288159 5.30672
-0.372602 0.333273 5.30331
-0.351781 0.354564 5.30346
0.354396 0.351838 5.30686
0.372634 0.333367 5.30349
-0.336382 0.370336 5.30293
-0.313367 0.389459 5.30351
0.307765 0.39434 5.30298
0.334374 0.371282 5.30145
-0.289818 0.407148 5.30346
-0.258345 0.427794 5.3033
0.239392 0.438803 5.30338
0.264827 0.42372 5.30316
0.290292 0.407513 5.30286
-0.219099 0.449263 5.3034
-0.178223 0.466643 5.30334
-0.151308 0.476739 5.30328
0.149969 0.476769 5.30349
0.181195 0.46595 5.30568
0.214635 0.451839 5.30168
-0.128737 0.483097 5.30348
-0.0996623 0.489713 5.30356
-0.0629126 0.495738 5.30298
-0.0186613 0.499474 5.30338
0.018632 0.499566 5.30308
0.0559966 0.496687 5.30342
0.0998043 0.489881 5.30327
0.128586 0.482691 5.30344
-0.129023 -0.482937 5.3392
-0.0984433 -0.490199 5.34297
-0.0648418 -0.495515 5.34194
-0.0164092 -0.499591 5.3419
0.0228957 -0.499165 5.34037
0.0585186 -0.496591 5.33759
0.100063 -0.48972 5.34413
0.129157 -0.483493 5.34586
-0.221093 -0.448374 5.34121
-0.176272 -0.467722 5.34186
-0.150081 -0.47703 5.33883
0.149795 -0.476799 5.33839
0.183493 -0.465019 5.34414
0.219114 -0.449269 5.33883
-0.289688 -0.407511 5.34566
-0.25709 -0.429044 5.34422
0.238949 -0.439029 5.33913
0.263001 -0.424962 5.34172
0.289864 -0.408171 5.34622
-0.337146 -0.369573 5.34283
-0.313501 -0.389739 5.33869
0.308571 -0.392985 5.34311
0.336003 -0.370213 5.33875
-0.372461 -0.33318 5.33923
-0.352142 -0.35463 5.33896
0.354906 -0.352658 5.34902
0.374129 -0.331759 5.34314
-0.40541 -0.292569 5.34591
-0.394275 -0.306351 5.33614
0.392788 -0.309008 5.34278
0.409595 -0.286454 5.34238
-0.426187 -0.261746 5.34429
0.42888 -0.256663 5.34226
-0.448684 -0.220768 5.34224
0.450731 -0.215753 5.33889
-0.465685 -0.181463 5.34211
0.468644 -0.172976 5.34436
-0.482178 -0.133356 5.34323
-0.475477 -0.154144 5.33875
0.477909 -0.146741 5.34595
0.481778 -0.132409 5.34593
-0.490256 -0.0961892 5.33909
0.488881 -0.103637 5.33891
-0.495848 -0.0610325 5.34315
0.496293 -0.0591932 5.34162
-0.499574 -0.0221474 5.34179
0.499546 -0.0117946 5.34095
-0.499557 0.0242785 5.34163
0.499578 0.0222706 5.33895
-0.496271 0.0595571 5.33867
0.496148 0.0593985 5.34416
-0.490859 0.0943116 5.3418
0.488555 0.1053 5.34204
-0.482398 0.131022 5.3432
-0.475534 0.154084 5.339
0.476389 0.151108 5.33626
0.482022 0.13281 5.3459
-0.46585 0.181681 5.34413
0.467545 0.177656 5.34022
-0.447248 0.222153 5.33926
0.451589 0.214192 5.34162
-0.425904 0.261805 5.34198
0.427877 0.258408 5.34239
-0.405481 0.292458 5.33839
-0.392701 0.310581 5.33855
0.391633 0.310384 5.33907
0.40791 0.289876 5.34227
-0.372587 0.332984 5.33888
-0.352221 0.354332 5.34614
0.355025 0.352302 5.34565
0.373067 0.333068 5.33863
-0.33517 0.371065 5.34269
-0.313189 0.389862 5.33879
0.307176 0.394098 5.33875
0.332368 0.373813 5.34147
-0.289606 0.407752 5.33901
-0.256977 0.428996 5.34211
0.238749 0.438795 5.35244
0.264966 0.42394 5.34565
0.289216 0.40745 5.34589
-0.221309 0.448428 5.34202
-0.178127 0.467148 5.33919
-0.149826 0.476611 5.34604
0.149747 0.476868 5.33925
0.187139 0.463311 5.34163
0.223877 0.447103 5.34094
-0.130058 0.48268 5.34304
-0.101505 0.490103 5.34314
-0.0630743 0.496043 5.33899
-0.0168194 0.499383 5.34165
0.0182444 0.499714 5.33916
0.0573264 0.496522 5.344
0.0994842 0.489938 5.33887
0.1288 0.482312 5.33851
-0.128741 -0.483048 5.37412
-0.101281 -0.489545 5.37728
-0.0615048 -0.496219 5.37614
-0.0202866 -0.499356 5.37625
0.0183625 -0.499321 5.37445
0.0555255 -0.496707 5.37428
0.0996087 -0.489878 5.37841
0.12934 -0.482869 5.38087
-0.217263 -0.450048 5.37614
-0.180235 -0.466011 5.37627
-0.150524 -0.477001 5.37464
0.150181 -0.476958 5.37449
0.186755 -0.463225 5.37841
0.21894 -0.449338 5.37452
-0.289736 -0.407531 5.382
-0.260079 -0.426701 5.37838
0.239299 -0.439035 5.37457
0.266342 -0.423021 5.37607
0.289798 -0.407944 5.38135
-0.334883 -0.371398 5.37766
-0.313104 -0.389676 5.37434
0.306502 -0.394968 5.37747
0.330438 -0.375108 5.37431
-0.372747 -0.333066 5.37444
-0.352518 -0.355299 5.37386
0.352402 -0.354168 5.38148
0.371592 -0.334002 5.37712
-0.40608 -0.291498 5.37724
-0.391278 -0.310945 5.3749
0.390578 -0.311747 5.37707
0.409029 -0.287341 5.37754
-0.426256 -0.261379 5.37831
0.428697 -0.256723 5.37638
-0.447019 -0.224389 5.37616
0.450693 -0.216112 5.37436
-0.465414 -0.181986 5.37636
0.467649 -0.176764 5.37878
-0.483298 -0.128658 5.37814
-0.476439 -0.149961 5.37449
0.477706 -0.146538 5.38147
0.481901 -0.132988 5.38127
-0.490434 -0.0958927 5.37445
0.489146 -0.103417 5.3744
-0.496569 -0.0577718 5.37709
0.496089 -0.0593849 5.37628
-0.499151 -0.0222634 5.37633
0.499587 -0.0167961 5.37627
-0.499639 0.0201255 5.37638
0.499507 0.0134334 5.37427
-0.496442 0.0593416 5.37431
0.496438 0.0594135 5.37871
-0.490167 0.0979636 5.37628
0.489847 0.101466 5.376
-0.482107 0.13245 5.37509
-0.47653 0.150322 5.37807
0.477795 0.14651 5.37425
0.481848 0.132002 5.38144
-0.465423 0.181875 5.37851
0.468093 0.175008 5.37453
-0.447204 0.22261 5.37432
0.450353 0.217957 5.37627
-0.425805 0.261601 5.37611
0.429433 0.255189 5.37611
-0.405659 0.292403 5.3747
-0.39174 0.31014 5.37487
0.391817 0.310335 5.3744
0.410749 0.285446 5.37741
-0.372614 0.333277 5.37461
-0.351758 0.355391 5.38199
0.354011 0.353405 5.3793
0.372844 0.333192 5.37457
-0.33702 0.369306 5.37707
-0.31364 0.389473 5.37457
0.307375 0.394096 5.37425
0.335723 0.370379 5.37665
-0.289496 0.407099 5.37428
-0.26026 0.426753 5.37613
0.239125 0.438647 5.38118
0.264635 0.423705 5.38129
0.289367 0.40787 5.38123
